33.1276 10.5063 -3.59301 201 204 217
20.3049 10.4146 -2.18041 166 175 180
36.953 10.5603 -3.59798 199 200 214
21.3344 10.3491 -2.20296 151 158 157
33.5368 10.561 -3.19703 112 115 119
9.8886 10.4663 -1.23273 105 95 127
10.1443 21.2649 -2.03059 84 84 84
24.9251 10.3431 -2.13799 158 166 179
9.35516 18.3398 -1.57249 74 55 68
23.7307 10.6867 -2.03604 94 50 68
24.3893 10.4249 -1.97861 96 62 81
9.97178 -23.0563 -2.11888 48 24 62
10.777 -23.3019 -2.17203 50 33 66
9.57172 -7.84871 -1.04142 186 197 220
9.61865 -8.59383 -1.00775 114 77 75
16.3915 10.4128 -1.19094 93 82 100
9.34994 -7.96759 -0.872573 162 172 137
24.3991 10.4135 -1.60377 99 61 78
20.3309 10.4562 -1.3964 167 171 170
9.81585 7.56964 -0.70147 189 190 197
9.39101 -7.24502 -0.816228 128 159 181
21.4995 10.448 -1.3968 163 166 168
9.3147 -8.42228 -0.744379 66 58 81
9.52581 -8.41732 -0.768588 181 196 203
25.0153 10.4254 -1.38325 159 161 165
9.778 10.4178 -0.688564 149 162 165
9.45081 -7.72659 -0.692184 164 175 181
9.52605 -7.35239 -0.670881 177 189 203
27.5031 10.474 -1.37418 161 170 167
-8.48268 9.95812 -0.607074 231 240 253
-8.94714 9.84919 -0.597844 209 202 173
-8.96738 9.71984 -0.572616 219 214 175
-9.3258 9.80475 -0.575656 218 208 188
9.51315 7.47154 -0.426221 134 147 163
-9.18181 9.79095 -0.482535 82 72 68
24.8822 10.3567 -0.865217 195 198 209
9.58357 7.38589 -0.368192 122 58 67
-8.8103 9.99653 -0.428104 75 75 81
-11.7634 9.95679 -0.496361 249 252 253
9.60875 7.97759 -0.348036 136 84 105
20.3372 10.7883 -0.593046 43 40 46
9.46966 8.06765 -0.248582 187 195 198
-9.08945 10.025 -0.276165 51 49 53
10.1989 23.5012 -0.392498 77 71 89
16.4886 7.93805 -0.127471 94 97 115
20.063 10.9768 0.00118503 107 97 92
4.28868 -10.6775 0.13164 119 128 119
-8.60212 9.85712 0.324988 80 84 116
9.2696 -8.6004 0.372611 151 148 125
-8.44355 9.86051 0.407779 202 219 235
9.49441 -10.974 0.494788 138 130 145
10.4292 10.2462 0.58528 97 96 106
6.40806 14.0105 0.704126 225 243 253
5.92972 14.1958 0.705621 244 249 254
-8.66354 9.85654 0.563878 213 228 240
-7.06143 -5.97999 0.418002 125 137 135
6.27058 16.5747 0.832952 96 100 105
10.5593 10.2211 0.719771 202 225 225
6.08502 16.5574 0.962376 232 229 210
-8.76457 9.81772 0.712407 146 156 157
9.0257 12.014 0.858125 57 58 72
9.06973 12.531 0.928153 56 58 69
9.10382 13.2893 0.963701 74 72 89
6.43265 14.2293 1.03887 251 255 255
-9.4401 9.95654 0.875228 157 182 177
5.94385 13.774 1.03372 161 202 210
-8.47409 9.82374 0.940205 217 209 216
-6.86654 12.8131 1.08975 135 143 62
10.0595 10.225 1.13381 200 224 226
8.91368 11.581 1.16048 66 67 79
-8.69193 9.83242 1.02293 86 91 97
-8.97745 9.88617 1.07417 181 192 212
15.7133 7.41929 1.52764 101 106 113
10.2468 10.1877 1.24252 68 77 70
-8.35024 9.83171 1.05179 85 91 99
9.16875 -3.36189 0.941199 112 112 120
-8.47621 9.82029 1.15008 189 210 208
10.7787 10.1537 1.46232 196 220 220
10.5151 10.1209 1.4322 66 64 81
9.07018 13.5222 1.61458 117 131 120
-8.14733 9.90651 1.25621 214 229 249
9.84806 10.1628 1.55267 61 65 77
-8.68367 8.8158 1.37273 62 60 73
9.50427 -3.31733 1.21889 117 119 122
6.57931 16.8147 2.08465 88 84 109
9.09651 -3.44637 1.24924 54 43 59
-7.87125 9.81917 1.47617 148 151 154
8.01263 14.8266 2.11331 101 92 127
6.4882 14.3225 1.99813 90 87 115
-7.09062 7.27371 1.50305 61 60 86
-3.22096 8.48514 1.57585 56 51 74
6.40972 -0.994591 1.56322 62 55 75
-1.67561 -4.39207 1.34152 193 195 200
-2.51099 -2.51693 1.38719 68 63 84
9.18336 -2.53134 -11.193 44 35 44
9.15601 -2.60413 -9.9896 41 34 58
9.05402 -2.73718 -9.2114 137 139 150
9.3981 -3.54839 -9.658 127 127 137
9.39663 -4.75315 -9.83069 48 44 66
9.19946 -4.86231 -9.48445 135 131 152
9.48162 -4.57575 -9.45683 162 160 181
9.1999 -3.70042 -8.55937 166 163 179
9.45367 -4.64344 -8.83986 163 159 179
9.66568 -7.99785 -10.3259 37 35 57
9.09848 11.1454 -10.4791 202 200 203
9.18442 -12.5803 -12.6868 81 81 91
9.44064 -4.85028 -8.55954 68 61 69
9.55854 -4.29355 -8.42523 53 49 74
9.53498 -8.2814 -10.2213 53 48 66
9.5262 -4.66162 -8.44844 56 61 74
9.23784 -5.94547 -8.75476 164 164 178
9.84657 11.3402 -10.6366 208 204 206
9.6234 -8.07696 -9.83171 164 163 179
9.29864 -6.05373 -8.4786 68 63 74
9.33095 -7.08271 -8.91446 173 170 188
9.82886 -10.3541 -10.6136 53 56 73
9.4835 -6.55483 -8.56774 74 76 93
11.4725 11.1727 -10.5865 74 75 80
9.62299 -8.20305 -9.24767 168 161 185
8.64555 -12.825 -11.2982 209 210 240
8.86637 -12.6482 -11.262 44 26 93
9.40296 -3.93839 -7.3221 79 73 86
9.35368 -9.44343 -9.65074 171 170 184
9.37137 -11.6562 -10.662 70 63 79
9.47295 -7.54236 -8.64005 78 81 78
11.2573 11.1494 -10.105 171 179 186
9.74864 -10.4268 -10.1127 171 166 186
10.053 -7.70665 -8.9425 140 137 155
9.59819 -11.5411 -10.5586 142 142 149
9.15178 -3.82863 -6.87428 168 164 180
9.52414 -8.33472 -8.85868 70 66 74
9.36204 -4.92084 -7.32455 64 60 67
9.47987 -6.61986 -7.90697 61 74 112
10.1956 11.0043 -9.18032 95 50 79
9.44946 -4.70869 -7.16311 162 160 179
13.1545 11.2259 -10.6888 76 77 78
8.85623 12.608 -9.34381 68 70 87
9.2829 -9.40505 -9.02384 174 168 190
9.10539 11.0232 -8.61661 224 229 234
10.7913 11.0615 -9.25015 98 49 81
9.33398 -6.15463 -7.4639 115 148 120
12.0441 11.2983 -9.90765 54 53 64
9.42024 -10.5472 -9.3772 79 75 91
13.7379 11.0722 -10.5399 76 75 79
9.88745 -7.61266 -8.18138 142 133 157
12.3291 11.2522 -9.86037 49 54 64
9.66788 -6.94491 -7.7469 100 111 134
9.18924 -9.40358 -8.58593 61 53 73
14.3535 11.2577 -10.7489 74 70 81
10.8123 11.0809 -8.94062 99 54 85
12.9997 11.2668 -9.91626 55 54 75
9.17536 -3.87038 -6.28372 163 158 176
9.54877 -10.2912 -8.93701 57 51 65
9.33974 -4.95945 -6.67872 65 64 78
13.6324 11.1396 -10.0966 157 166 177
10.2113 10.9964 -8.47724 233 236 248
9.31094 -10.6915 -8.88615 142 143 154
11.3888 10.9932 -8.86494 95 50 79
10.7603 11.0252 -8.47827 223 224 246
13.277 10.9284 -9.53534 181 190 202
9.30544 -11.2677 -8.94426 139 141 144
9.51175 -8.44516 -7.74086 76 86 95
9.18986 -3.92864 -6.00051 58 54 60
10.2342 10.972 -8.10378 66 67 78
9.90035 -10.087 -8.55154 169 180 197
13.1079 11.1015 -9.25925 95 49 80
11.328 10.9824 -8.44668 219 219 238
14.5272 11.1053 -9.8642 151 157 170
9.40716 -4.99077 -6.23313 63 60 66
9.70479 -8.34223 -7.47958 164 160 179
9.17442 -6.09334 -6.43417 160 157 171
13.0963 11.0898 -8.97048 96 53 82
12.2434 11.0449 -8.55315 230 230 246
16.8611 11.1337 -10.5215 155 165 176
11.3843 10.9284 -8.05136 80 85 86
4.86483 -10.2629 -6.59555 117 117 174
9.78633 -10.991 -8.28944 70 51 80
17.376 11.0648 -10.5101 59 61 71
13.5909 10.8318 -8.7702 91 52 86
9.18431 -6.1372 -6.12383 59 52 63
13.0669 11.0211 -8.48275 221 220 236
9.06256 -11.3807 -7.94858 76 73 93
17.9879 11.1029 -10.5038 156 169 183
9.55861 -7.04941 -6.40287 60 54 62
13.6699 10.9712 -8.43101 221 220 235
16.8162 11.1194 -9.76747 136 141 147
14.8655 10.9212 -8.84957 90 49 84
13.0738 11.0797 -8.14828 88 94 100
14.1591 10.957 -8.46894 223 222 243
10.2251 10.873 -6.84867 97 49 77
9.43447 -6.37967 -5.8642 150 153 177
9.1547 -3.96925 -5.06988 151 162 186
9.27569 17.692 -9.16746 167 180 167
9.5033 -7.69963 -6.25178 62 65 97
9.37157 -4.59162 -5.28207 64 68 99
11.9966 11.0502 -7.47761 65 70 90
19.0394 11.5961 -10.4041 167 181 187
-15.6178 -4.96902 -8.05907 85 119 209
9.62897 -10.7866 -7.345 114 128 126
9.60157 -4.491 -5.32084 154 164 183
9.45234 -5.0831 -5.36125 64 67 81
14.7684 10.9169 -8.37524 213 215 230
13.7174 10.8454 -7.95388 73 74 82
10.7786 10.8864 -6.86982 100 48 78
16.5578 11.1352 -9.06512 92 54 90
12.9805 11.063 -7.59379 65 65 76
11.3507 10.8151 -6.80912 95 46 80
14.8847 10.8573 -7.97842 83 86 91
-16.8705 -3.88826 -7.95345 50 55 71
-16.1995 -5.34435 -7.88096 43 47 65
9.15102 -3.98884 -4.66508 163 157 172
10.8042 10.9025 -6.47932 102 49 83
9.05531 17.0969 -8.17745 153 156 163
9.1635 -6.18537 -5.21927 170 174 198
13.1565 10.8744 -7.2426 146 150 156
9.2984 19.2162 -9.00941 165 179 173
9.73593 -6.9613 -5.56381 173 178 197
9.18042 18.1853 -8.49777 62 48 80
9.65106 -10.8076 -6.72823 67 65 70
9.44501 -4.88419 -4.88549 158 153 168
9.29535 26.0067 -11.5541 73 72 125
-17.1659 -3.6954 -7.8387 78 113 205
9.29888 20.1334 -9.18267 40 38 56
11.37 10.8082 -6.41431 97 46 80
10.1797 10.7934 -6.04252 216 215 222
9.4854 -7.27483 -5.45014 144 139 154
18.4279 10.8913 -8.89 86 54 91
17.0698 10.868 -8.34232 221 221 242
9.17693 -4.02048 -4.46573 163 160 171
9.73734 -7.9806 -5.64942 174 178 203
9.57348 -7.07208 -5.31365 105 112 129
13.1007 10.9334 -6.88746 99 45 82
9.24704 17.6314 -7.96149 171 184 185
-17.1124 -3.50811 -7.47545 39 44 57
9.55287 -8.56697 -5.66118 66 63 77
9.48075 -4.92047 -4.66496 156 151 169
-3.64224 -7.85691 -3.99331 137 176 253
9.51233 -7.48304 -5.29214 85 69 115
20.0348 11.1646 -9.18136 86 56 95
15.6289 11.0794 -7.60469 67 72 85
9.39718 20.8673 -8.96923 163 174 169
9.57708 19.4959 -8.43552 168 171 172
11.3248 10.7888 -6.03295 215 213 229
9.21675 19.6672 -8.37901 69 53 84
18.2749 10.8954 -8.35431 213 215 226
17.4219 10.933 -8.0634 71 73 70
9.42711 21.892 -9.13903 53 56 73
14.3557 11.0116 -6.9132 92 51 83
13.1134 10.9376 -6.51903 95 50 85
9.2091 -6.27485 -4.65 161 155 171
21.1204 11.0774 -9.06288 91 63 95
9.53827 -14.9712 -7.29864 64 63 82
9.9403 19.7044 -8.14731 60 59 76
23.8154 11.1347 -9.88362 131 136 142
20.3642 11.1595 -8.73162 207 214 224
12.4412 10.8924 -6.05343 221 222 233
18.4145 10.8008 -7.92072 84 87 95
9.98767 -11.2945 -6.09369 67 67 79
9.60429 -8.43918 -5.17246 160 159 174
16.8139 10.9995 -7.36972 140 147 153
11.3431 10.7314 -5.63408 70 70 77
9.65627 21.1269 -8.38352 164 169 168
10.5377 26.4107 -10.3062 79 69 65
9.37465 21.4524 -8.37566 69 59 86
9.31461 -11.9516 -6.03433 74 69 92
21.9603 10.8281 -8.896 81 60 99
9.48829 -5.0253 -4.1881 162 155 172
25.4265 11.0631 -10.0424 149 153 158
16.4477 11.1881 -7.13344 88 52 90
-29.1354 10.4936 -11.4565 61 59 65
-16.1888 -5.67405 -6.55463 58 62 74
-16.1199 -5.96268 -6.55569 93 129 226
20.6184 10.836 -8.3538 221 225 241
9.11353 19.387 -7.42294 69 73 87
27.5118 11.2132 -10.5615 120 130 130
10.3487 26.6336 -9.76156 247 237 231
13.0791 10.9371 -5.74204 78 79 85
9.1947 -9.63123 -4.99154 164 163 175
21.6137 10.7885 -8.27115 214 216 230
9.39949 -5.15606 -3.94219 65 63 65
9.62879 19.3296 -7.14478 232 249 252
-15.1572 -5.59093 -5.82201 52 53 79
29.6876 10.9315 -10.7098 57 55 64
27.1913 10.7671 -9.91984 143 147 150
9.54039 20.7803 -7.47988 182 196 191
-30.7952 10.7206 -11.2093 179 166 135
-16.4955 -2.86131 -5.88495 80 122 214
-9.43936 -6.70171 -4.24273 112 159 242
16.5932 10.9766 -6.5806 90 55 89
14.8915 10.8031 -6.03614 210 210 220
24.0343 11.2046 -8.82361 167 171 169
9.49064 21.6491 -7.59305 73 76 88
10.1054 -24.6012 -9.3632 62 53 74
-27.2301 10.4964 -9.68117 160 170 188
9.22203 -6.3368 -3.94559 59 51 69
11.3168 10.6627 -4.86271 79 82 93
9.87949 24.9136 -8.45576 81 76 86
10.9675 10.75 -4.77371 140 147 152
10.2477 20.198 -7.07166 68 57 82
25.8389 10.8713 -8.96469 79 65 108
20.394 10.9997 -7.35915 135 142 147
17.4802 10.8388 -6.49848 89 57 91
-32.1331 10.4902 -10.9701 181 163 135
24.3589 10.9204 -8.44724 214 217 235
-29.6595 10.3571 -10.0131 58 52 54
16.4063 10.8249 -6.05143 207 205 220
9.61723 20.9747 -7.00024 197 203 206
9.4562 22.1488 -7.29151 192 199 198
-17.238 -2.79608 -5.68379 81 122 218
10.1558 10.6415 -4.37469 95 46 71
11.1314 10.6789 -4.59388 149 171 173
8.99056 26.2717 -8.33707 254 248 244
9.22929 -9.70984 -4.46297 161 158 172
33.5254 10.9321 -10.82 55 58 62
21.4696 10.8897 -7.30541 139 146 154
18.3519 10.6675 -6.41837 85 58 93
10.5896 27.6649 -8.87609 86 85 93
13.1052 10.9547 -5.047 74 75 90
10.7375 10.6822 -4.43632 98 44 75
9.50005 -8.66823 -4.21241 69 61 68
25.4076 10.8673 -8.34265 213 215 234
13.4369 10.7283 -5.06164 185 190 195
31.037 10.8799 -9.94566 126 135 138
-34.6027 10.5131 -11.0212 181 163 135
-15.1704 -6.18484 -5.17635 42 49 66
16.5404 10.9361 -5.72764 79 80 83
11.308 10.6075 -4.37677 99 42 72
9.67693 22.6179 -6.94009 191 201 197
-27.5679 10.1615 -8.62756 64 58 56
13.2621 10.7437 -4.77373 140 147 153
29.965 11.0239 -9.14643 80 68 113
13.7096 10.6461 -4.85177 59 56 67
-15.3017 -6.48093 -5.0155 108 148 243
18.3585 10.7368 -5.98052 208 207 221
9.45967 20.0063 -6.07996 68 59 86
26.2754 10.9175 -7.99303 92 94 102
23.7772 10.9172 -7.35244 136 142 149
17.3557 10.7309 -5.64276 80 87 84
37.4244 11.0183 -10.9655 55 58 66
9.2994 27.4731 -7.9084 77 70 78
8.855 32.5975 -9.2459 82 79 94
35.212 11.094 -10.3257 138 147 148
9.42262 -10.4919 -4.22832 58 52 74
14.4011 10.7561 -4.80741 141 145 152
-15.6753 -6.18657 -4.89631 103 144 242
-24.9538 -13.3627 -8.16284 71 62 105
14.7458 10.557 -4.84832 75 80 92
13.4538 10.6582 -4.56147 132 141 139
9.88097 -15.741 -5.4615 49 44 61
13.0133 10.6916 -4.4241 98 46 75
-12.2065 10.2601 -4.19086 74 71 74
9.35669 -4.2516 -2.92196 60 72 115
21.5603 10.4522 -6.31258 86 69 107
-17.5189 -3.02501 -4.94339 43 50 75
18.289 10.5642 -5.51172 74 74 81
9.88232 24.8842 -6.88457 60 51 54
9.50679 -4.68039 -2.99122 48 63 108
9.14256 10.6631 -3.50257 241 231 233
20.6637 10.6845 -5.97663 209 210 224
9.70112 21.0688 -5.82358 160 164 166
33.5009 10.9841 -9.15151 86 75 116
9.52162 -4.5091 -2.88714 176 188 207
10.2575 10.7071 -3.63933 214 216 229
9.64167 10.6506 -3.50995 234 226 227
-35.0784 10.4241 -9.43225 121 125 111
27.1593 10.7923 -7.31939 145 155 164
-37.0779 10.2488 -9.83448 69 65 73
10.8211 10.7401 -3.62717 224 226 234
21.8168 10.6738 -5.94665 207 208 226
16.8972 10.8053 -4.83685 137 143 150
14.7647 10.5213 -4.30801 89 54 87
10.0506 25.7903 -6.57706 186 168 155
9.51513 -4.70754 -2.76643 71 57 81
10.0218 21.1696 -5.46742 65 63 70
23.8749 11.0021 -6.26686 212 216 229
11.4318 10.6906 -3.61989 215 216 223
9.70687 -8.60779 -3.34255 50 54 66
17.8365 10.6875 -4.81117 137 138 148
10.1643 10.5794 -3.29773 73 68 83
9.31104 -5.22112 -2.68513 68 65 82
26.2812 10.8213 -6.61917 80 69 110
18.1333 10.4346 -4.82638 78 79 80
14.8068 11.184 -4.25349 92 53 88
12.1998 10.6772 -3.67148 221 222 229
9.69621 -15.4432 -4.60317 151 151 152
16.5502 10.7806 -4.44221 91 54 93
10.8339 10.7814 -3.36344 90 85 88
21.3023 10.2642 -5.324 88 92 94
9.65606 21.8562 -5.18182 63 63 76
9.44999 -5.05965 -2.57522 157 153 165
13.1009 10.7455 -3.66201 212 209 219
11.2944 10.527 -3.26047 80 79 78
17.4586 10.6524 -4.37961 88 58 99
25.1523 10.5614 -5.86298 213 213 229
13.5694 10.5247 -3.59002 211 209 218
9.54821 19.2211 -4.46806 194 201 197
20.4841 10.8076 -4.86137 140 145 152
16.5523 10.7788 -4.08477 88 56 93
14.3295 10.8282 -3.7131 208 207 216
8.87392 29.0805 -6.2784 82 85 100
8.43081 -21.598 -5.23107 124 120 125
-9.13582 10.4238 -2.77431 62 53 54
10.3928 -16.879 -4.4594 154 151 160
29.8901 10.8119 -6.63227 83 73 116
-35.5667 10.3161 -7.8273 192 186 199
9.59491 -8.58591 -2.85095 159 153 171
14.7214 10.5301 -3.57951 206 204 213
13.0446 10.7396 -3.31638 71 74 81
9.32363 -5.2669 -2.32271 77 74 90
9.74906 20.9205 -4.47959 228 240 247
-37.9996 10.2245 -8.12671 175 166 165
9.94038 22.4552 -4.74315 83 85 89
26.196 10.7327 -5.56809 92 94 103
9.00801 -3.31018 -1.9958 149 149 152
15.6757 10.6247 -3.58652 211 208 222
9.20054 31.9098 -6.31452 60 56 73
18.2451 10.4324 -3.97588 83 64 99
9.48922 30.895 -6.06819 205 204 201
-31.4421 10.1061 -6.48017 134 123 108
9.2272 -9.84729 -2.82885 164 163 168
33.7855 10.8806 -6.73565 84 75 123
28.0904 10.2937 -5.70842 200 202 215
16.5542 10.75 -3.67354 206 203 212
9.73005 -10.9404 -3.02306 156 152 162
23.8036 10.7057 -4.8485 140 145 154
9.655 -8.63162 -2.63973 162 159 171
9.12534 -3.1649 -1.9198 96 94 103
9.419 -8.76069 -2.59599 73 72 86
20.0624 10.824 -4.15025 87 62 100
9.57788 18.6385 -3.71198 71 43 61
17.3402 10.6133 -3.60578 200 201 213
14.7334 10.4324 -3.19948 71 71 79
9.6889 20.4387 -3.97604 73 53 67
-30.9833 10.3851 -6.03316 194 189 197
-36.7294 10.1791 -7.07918 60 55 54
9.52201 -11.0817 -2.80881 75 72 88
37.6092 10.9244 -6.7994 87 77 124
30.1064 10.8148 -5.5768 80 81 89
18.1416 10.4345 -3.54768 205 204 210
21.3346 10.1605 -3.8997 84 68 110
11.2489 10.4444 -2.44601 73 84 92
9.29955 17.3813 -3.14388 182 189 184
9.43865 19.802 -3.53771 75 45 60
9.58787 21.7114 -3.78989 70 57 82
9.42413 30.7932 -5.15983 211 213 208
9.96786 -22.2859 -4.31943 73 71 74
9.03384 -3.32297 -1.67701 138 134 150
9.63212 19.2711 -3.31552 169 171 167
13.0026 10.7184 -2.5318 74 79 88
9.14186 -3.19891 -1.59129 56 53 65
11.051 10.4562 -2.20143 180 193 194
-9.00627 10.2051 -1.97095 82 79 84
9.17114 -3.28275 -1.54095 62 56 77
21.5278 10.3498 -3.50034 204 205 214
13.6949 10.4547 -2.47051 79 80 84
10.1305 10.4598 -2.03653 99 41 65
9.50415 19.308 -3.07101 159 167 179
9.23319 -3.72866 -1.54445 84 84 87
26.3117 10.6445 -4.12466 85 73 112
10.461 20.1341 -3.15481 66 63 73
9.77536 21.0756 -3.242 169 172 172
9.86617 31.7698 -4.73507 210 211 211
9.51878 -11.3456 -2.32807 135 133 142
10.746 10.5392 -2.07372 101 41 63
9.82071 -21.9553 -3.73949 75 75 83
9.38081 -5.97856 -1.71194 59 58 58
14.7747 10.4233 -2.49675 73 75 84
9.15799 -6.32821 -1.68615 42 42 49
9.9762 -6.08768 -1.74358 36 28 46
14.3934 10.5482 -2.36028 138 141 153
11.2885 10.4341 -2.02149 97 40 64
9.05097 -3.38989 -1.41121 130 128 147
16.6216 10.7908 -2.6066 77 79 81
9.59817 20.9683 -3.00089 183 196 196
9.18213 -9.22986 -1.89407 46 41 48
29.8308 10.5994 -4.16163 86 76 119
25.709 10.486 -3.55814 210 214 224
9.59161 20.0431 -2.75485 56 54 66
9.85734 -12.2628 -2.18712 42 30 53
14.5545 10.4601 -2.21319 176 186 188
9.61909 19.148 -2.61786 190 194 197
8.98895 -18.183 -2.81217 120 117 128
33.847 10.7049 -4.25571 90 80 121
10.1259 10.4257 -1.59095 103 47 67
9.69803 21.7733 -2.66942 57 55 67
26.0016 10.4908 -3.12898 81 85 91
9.63036 20.6801 -2.48612 173 185 181
11.2792 10.3944 -1.59066 100 43 67
9.10503 10.5242 -1.42644 212 207 204
9.18718 -6.3829 -1.2939 183 194 216
20.2668 10.5838 -2.37235 133 139 147
9.60533 -8.67831 -1.4804 183 194 215
13.0826 10.5767 -1.62996 100 44 70
9.96362 23.0005 -2.43382 188 191 189
29.9468 10.5934 -3.14293 85 88 95
11.0236 10.4712 -1.4318 182 184 190
9.58373 -7.9806 -1.34508 191 197 223
9.36968 18.6574 -1.90061 187 195 189
9.68175 20.1742 -2.0633 78 78 84
9.43201 -14.631 -1.81605 116 113 121
8.82063 10.4835 -1.18222 83 77 97
20.0461 10.6705 -1.98556 95 39 65
-8.50084 9.97207 -1.12649 225 236 245
23.5925 10.3165 -2.21461 147 161 166
16.5543 10.6251 -1.66143 98 46 66
13.2822 10.4198 -1.417 174 183 191
10.149 10.3703 -1.19663 87 83 104
9.34177 -8.45344 -1.20543 184 193 217
38.1658 10.2148 -3.33177 176 182 196
17.3372 10.4263 -1.63289 94 54 70
-8.89127 9.99922 -1.05134 188 150 121
9.67847 20.7806 -1.78706 191 200 199
18.1787 10.2282 -1.60998 95 36 59
9.43012 -10.6035 -1.22963 112 5 87
20.0308 10.6599 -1.69727 93 42 64
-47.1039 7.62395 -3.86897 28 31 34
16.7943 10.4434 -1.41717 166 170 177
9.7097 22.4 -1.73488 185 193 189
10.9516 10.4562 -1.03442 199 203 218
31.3575 10.4713 -2.34513 129 141 151
17.9819 10.4632 -1.41939 162 166 170
15.92 10.4862 -1.30689 181 182 185
21.2799 9.96286 -1.59194 88 36 57
9.73069 -11.4909 -1.11121 147 145 138
9.43301 -8.64129 -0.941564 178 186 208
-8.53485 9.98723 -0.791952 235 246 252
-9.10789 9.98856 -0.846629 244 248 255
26.0618 10.3913 -1.72978 90 42 66
9.73894 -20.6752 -1.56926 108 121 114
10.5693 20.2307 -1.30461 76 50 64
9.67569 21.7564 -1.33906 78 56 72
9.63751 27.9538 -1.56385 202 193 190
9.70853 -10.0177 -0.875675 132 1 102
29.6927 10.3838 -1.70655 90 59 84
9.49781 7.76064 -0.585243 136 121 144
9.55928 19.9058 -1.0756 73 52 65
16.6973 10.3781 -0.859107 206 209 215
9.54872 19.0869 -0.916841 148 149 147
9.99449 10.3555 -0.580285 233 233 227
9.66568 21.648 -0.981486 79 58 67
9.87189 -11.7801 -0.72052 115 126 135
17.9813 10.4232 -0.774741 192 192 195
9.68318 29.1954 -1.14496 108 100 116
21.6474 10.4945 -0.891574 199 204 220
9.08103 17.1765 -0.655662 74 71 81
9.6821 20.8563 -0.820817 151 156 155
20.2152 10.2801 -0.796862 202 204 219
23.9113 10.4862 -0.843545 199 204 216
10.0255 23.3179 -0.793357 165 172 171
26.6477 10.1226 -0.869966 191 194 205
35.5421 10.5056 -1.02116 164 170 177
17.9936 10.0656 -0.516233 37 35 46
10.566 26.5089 -0.671429 189 189 194
-16.0094 -2.89349 -0.48411 69 69 87
8.95358 11.3713 -0.29452 221 225 216
11.4643 27.45 -0.554163 116 117 123
-12.283 9.92884 -0.341101 63 65 65
20.7656 10.421 -0.381371 38 36 42
8.78998 11.4195 -0.0379411 75 81 85
10.1362 23.9088 0.0105285 140 144 146
11.1743 10.1263 0.129235 213 217 221
9.1347 -12.2252 0.0728842 45 37 51
9.46276 7.8953 0.125115 203 207 216
10.104 10.3872 0.134178 215 221 223
8.73832 11.3385 0.153216 65 65 77
-8.58158 9.93061 0.15074 233 237 252
7.26369 15.3317 0.306932 53 50 62
9.19427 12.1051 0.305583 59 61 72
16.2369 6.33902 0.380412 22 20 34
10.2019 23.1787 0.507409 58 52 63
-8.99944 9.87937 0.28351 62 74 58
-9.65443 9.9459 0.346325 83 91 76
4.37917 -9.52067 0.275428 39 31 56
10.4194 10.2448 0.442181 88 88 106
9.88189 10.2383 0.41507 75 74 89
9.44726 -12.3272 0.46686 107 106 116
11.007 10.2416 0.462195 78 79 90
9.38256 17.0615 0.602694 142 146 154
9.7361 -11.9867 0.496731 112 110 121
16.4674 6.23377 0.659168 68 74 100
6.61085 14.5279 0.638949 228 240 254
6.01639 14.3749 0.599731 219 237 254
5.83659 16.1839 0.687772 68 66 77
11.2608 10.1874 0.620484 183 206 211
10.6972 10.2321 0.608492 202 224 225
9.37578 -10.2581 0.590115 143 141 152
-8.35848 9.83852 0.560081 70 73 87
8.96974 13.7683 0.777196 116 132 124
9.38842 -7.77858 0.591262 69 64 79
-9.13847 9.9695 0.630596 39 40 43
-10.35 9.8881 0.652884 37 36 40
-9.77415 10.0171 0.680303 43 40 42
10.6422 -15.1333 0.932403 47 38 55
9.35898 -6.66468 0.611994 73 67 84
9.23377 16.0776 0.978063 111 113 129
8.86928 -11.9193 0.800666 55 54 65
9.28785 -7.92213 0.719825 138 139 148
6.14292 14.004 0.88501 71 73 104
9.47427 -12.1144 0.93854 56 45 67
-8.67039 9.95629 0.767356 232 225 228
4.02877 -10.4239 0.734222 56 50 67
10.3376 10.2242 0.932872 88 82 73
9.58851 -7.12082 0.813533 138 137 147
-9.04383 9.86279 0.883526 62 63 66
9.29021 -8.98598 0.970744 67 58 75
6.01591 14.2702 1.12997 222 243 235
5.75097 16.7198 1.36047 223 232 243
3.94321 -9.78328 0.85059 84 83 97
6.47512 14.1146 1.18677 199 200 240
10.3221 10.1874 1.16435 67 74 76
9.62661 10.2414 1.14089 211 211 216
6.2559 14.2295 1.26736 34 115 147
-7.8945 9.88782 0.985746 229 244 254
9.37532 -7.14288 1.01726 98 93 105
9.35175 -6.17685 0.985591 57 57 65
-7.32755 10.0684 1.0086 234 249 254
-11.5676 -4.30875 1.03042 146 129 119
15.5747 6.68276 1.4758 95 100 110
10.6706 10.1696 1.27046 201 222 222
6.88753 14.3387 1.37393 93 91 107
-13.5319 -3.53979 1.23771 166 146 122
-7.66985 -3.9231 0.786582 63 60 69
-11.256 -4.44232 1.11034 27 28 38
8.74468 -7.59562 1.1361 81 62 105
6.21154 13.9093 1.39425 49 74 112
6.56819 -9.4056 1.15415 54 46 70
11.2341 10.1041 1.43469 196 216 222
9.16407 11.9753 1.43817 56 54 70
9.14846 -3.61974 0.998758 124 121 134
6.20442 16.4064 1.69502 168 178 181
-8.74368 9.73259 1.25054 65 59 81
10.0645 10.159 1.42886 167 195 191
-3.44857 8.40114 0.854785 38 38 43
-2.72505 -6.2109 0.788832 171 173 180
-7.57684 10.3174 1.29589 221 233 254
4.05662 -11.0165 1.33109 120 120 125
4.22159 -10.6316 1.28931 36 30 43
10.9859 10.1288 1.58902 67 68 66
-6.19173 10.7055 1.2518 44 44 51
8.8092 13.7316 1.76537 59 59 70
6.01796 -8.77965 1.24643 112 113 104
10.3876 10.0642 1.60337 54 54 58
-3.11838 -6.84618 0.917463 179 178 180
9.8533 10.1098 1.64561 77 74 81
9.01576 11.2409 1.67479 157 163 158
9.12329 -3.7217 1.24594 82 77 86
-8.5222 8.76648 1.4215 55 56 61
-11.2749 6.98932 1.55119 125 128 130
-6.42799 11.8794 1.58186 106 108 107
4.22022 -8.58858 1.28743 130 131 121
9.26444 -3.3056 1.28276 46 45 60
9.21364 16.2213 2.28343 181 181 186
-3.16764 -5.59833 0.914996 46 33 46
-3.32805 -6.89247 1.07333 59 53 70
14.1699 9.77734 2.18393 46 46 58
-7.59114 9.75686 1.51251 45 46 59
5.18809 -6.72525 1.20127 60 53 77
5.65074 13.3888 1.84011 80 79 101
4.69791 -7.09745 1.21837 120 117 120
10.9003 10.173 1.93434 181 181 185
8.77453 11.1993 1.84228 78 72 90
6.45255 10.5947 1.59058 180 181 189
-9.55678 -2.19127 1.32752 73 73 92
10.3579 10.2392 1.92032 180 181 186
-5.55009 10.5633 1.55339 53 53 63
4.82367 -6.56725 1.25588 118 115 124
9.04991 10.2171 1.88151 184 182 193
3.09302 -8.05401 1.37545 152 154 157
10.6171 10.1611 2.12298 68 67 77
-3.56803 8.28883 1.23652 78 80 75
5.70033 -5.46539 1.32083 135 135 142
8.59192 -1.43714 1.37634 144 146 158
-2.56601 -6.04545 1.13644 45 31 56
6.66429 -4.28549 1.32587 65 60 88
10.5333 9.38366 2.20999 88 81 116
-3.85123 8.35253 1.3755 165 166 173
6.03825 10.3514 1.87162 141 144 149
-6.17131 7.5276 1.49639 107 108 114
8.0562 -1.05278 1.39528 79 72 83
6.86556 -2.78069 1.38478 64 61 90
-3.18979 10.1565 1.7306 97 98 104
-3.58924 8.33084 1.45529 89 85 85
3.24781 -6.25936 1.3992 82 79 90
-6.89194 -1.71214 1.32246 103 108 117
4.465 -4.58578 1.35689 128 126 133
-2.963 -5.15474 1.27077 58 54 72
-4.16084 7.83407 1.56908 76 69 94
-3.41537 8.28269 1.60143 54 50 60
4.19848 -3.8584 1.37532 131 132 134
-2.43476 -4.60291 1.3296 110 97 118
-2.05047 -4.70373 1.34294 215 199 185
-2.18522 -4.76031 1.36153 199 188 174
-3.63254 3.03359 1.00609 141 142 151
-1.75735 -4.30615 1.34951 63 59 83
-2.45659 -3.59461 1.28553 182 185 178
4.06564 -3.06267 1.45515 133 133 140
-3.43413 -2.97593 1.33035 138 139 132
-2.66798 -3.60039 1.37202 179 175 176
-2.35465 -3.78748 1.39402 153 160 158
-2.6032 -3.33147 1.34145 181 180 184
-2.44966 -3.11701 1.34909 63 54 81
-2.42768 -2.87359 1.36661 67 57 77
-2.04067 5.80055 1.58478 127 130 135
-3.17819 4.40292 1.52499 123 127 133
-1.83605 -2.73772 1.38128 63 53 83
-2.14545 -2.31587 1.42212 150 148 162
-2.73039 3.84647 1.60648 142 148 155
-2.63354 -1.27232 1.4312 145 142 157
-3.02073 0.502332 1.56008 119 120 136
-27.3592 9.88493 -6.39695 62 54 50
9.19747 -6.37388 -1.52965 64 67 76
-7.75529 9.9528 0.845832 47 51 38
9.19443 -2.53935 -11.1706 43 35 43
8.9811 -2.754 -9.08218 136 139 152
9.2995 -3.73399 -9.63175 60 64 91
9.39503 -3.50875 -9.64049 127 127 137
8.19016 10.3774 -11.1172 106 106 107
9.28284 -3.71953 -9.20901 165 161 179
9.17493 -4.88744 -9.43169 135 135 149
9.49917 -4.56025 -9.48389 162 163 179
9.27398 -5.63085 -9.66319 131 127 142
9.3113 -5.98503 -9.80855 56 63 86
9.12481 11.2602 -11.2194 58 53 58
9.32556 -6.01995 -9.40762 166 162 182
9.45801 -7.31749 -10.0968 43 40 73
9.50533 -4.63634 -8.86726 162 159 180
9.3404 -3.85065 -8.27382 91 98 115
9.49598 -7.8953 -10.221 46 50 79
9.4702 -4.26747 -8.39077 71 79 99
9.1005 11.1356 -10.4168 199 197 203
9.25921 -12.5411 -12.7077 82 79 84
9.48856 -4.8609 -8.54797 61 57 62
9.40284 -4.61839 -8.34719 56 58 80
9.78572 11.1187 -10.4307 186 180 177
9.6749 -8.08914 -9.89674 163 161 175
9.3356 -6.66432 -8.82202 169 167 186
10.7783 11.2054 -10.6498 78 78 81
9.37173 -9.05008 -9.95264 140 140 155
9.31418 -6.08813 -8.44133 77 82 78
9.50049 -8.21379 -9.5431 81 80 106
9.4867 -9.62997 -10.2336 56 71 98
9.71912 -10.5724 -10.7396 57 56 70
10.971 11.0703 -10.3887 163 172 182
9.2898 -6.48011 -8.37115 66 66 88
11.5525 11.1678 -10.6455 74 74 82
8.88482 11.726 -9.61841 148 150 160
9.6745 -8.19509 -9.26814 167 162 185
9.55917 -4.36524 -7.55662 89 102 119
8.53109 -12.7756 -11.1702 240 244 252
8.92152 -12.6664 -11.2625 54 48 78
9.51054 -4.72461 -7.61514 54 58 91
9.26148 -12.504 -11.1801 37 2 98
9.76785 -10.3901 -10.1544 168 165 184
9.41207 -7.5116 -8.56424 80 84 95
11.3036 11.2206 -10.1346 178 190 196
9.66925 -6.51828 -8.18986 185 210 233
9.78855 -8.52594 -9.02427 71 62 65
13.0369 11.1798 -10.6676 77 73 79
8.85198 12.6432 -9.37612 67 67 83
9.52062 -4.72497 -7.1233 163 162 181
9.47496 -10.0875 -9.22838 174 170 187
9.69515 -7.38519 -8.07823 143 140 157
13.3839 11.1934 -10.4593 138 143 147
10.2614 11.0166 -8.94631 95 50 80
9.41489 -10.5649 -9.38654 79 75 91
9.78813 -6.97131 -7.9311 87 80 100
12.7667 11.2305 -10.138 159 164 180
12.2805 11.4131 -9.9968 54 53 62
10.7556 11.0892 -9.01857 97 49 79
9.42644 -4.92423 -6.79538 106 112 145
9.64917 -7.68094 -7.85166 87 91 110
9.16068 -3.8756 -6.27274 163 160 175
9.36537 -6.22492 -7.12493 166 159 181
11.4899 11.0237 -8.96678 93 48 82
14.137 10.9231 -10.1119 138 142 145
9.05228 -10.4319 -8.60811 144 142 159
9.48435 -4.80575 -6.53482 164 161 178
12.8498 11.3211 -9.4763 89 46 79
9.42059 -11.3438 -9.01346 142 144 155
9.18179 -3.95567 -5.94646 58 60 78
9.67896 -8.273 -7.48188 165 162 179
9.46232 -4.99591 -6.23362 57 56 64
13.0224 11.1022 -9.07864 95 48 83
12.2837 11.0619 -8.62354 231 236 246
17.4158 10.9749 -10.6961 55 53 56
16.885 11.1549 -10.4787 137 142 152
10.9203 10.9971 -7.84291 147 153 158
11.4522 10.9127 -8.00564 87 90 96
3.43097 -10.165 -6.21822 107 137 222
9.52686 -8.4315 -7.13279 111 122 127
13.9951 11.037 -9.02336 93 47 84
9.63021 -4.4216 -5.83232 139 144 165
13.3329 11.1365 -8.68998 218 222 228
-16.6246 -4.09319 -9.13541 45 45 73
9.44867 -7.34249 -6.60766 167 163 185
9.16701 -6.16039 -6.06297 62 59 81
-16.9869 -4.81627 -9.29975 44 46 62
18.3683 10.8093 -10.5761 52 53 62
9.69299 -8.38352 -6.89801 166 164 176
9.46392 -10.2229 -7.4807 167 163 179
9.53867 -7.01404 -6.33844 56 48 71
15.0358 10.9779 -8.96138 89 46 85
14.3707 11.0533 -8.63047 229 233 240
12.9796 11.0262 -8.07369 92 96 103
19.1874 11.1917 -10.5505 58 61 74
9.50669 -7.74682 -6.35367 62 58 80
9.33838 -4.61022 -5.31304 61 70 100
9.48381 -7.29446 -6.12 143 144 150
9.6758 -4.49434 -5.40433 154 160 185
9.6114 -10.7478 -7.3482 106 108 119
9.48714 -8.40667 -6.45406 57 58 66
9.46792 -5.06789 -5.41714 61 65 78
18.676 11.3846 -10.1685 171 186 195
10.975 10.6724 -6.93964 85 102 114
10.2325 10.816 -6.75693 94 48 75
-15.5453 -4.99093 -8.01885 83 117 211
16.5013 11.1735 -9.14579 86 53 86
14.5736 10.8315 -8.23317 213 215 230
13.8939 10.9189 -7.98135 78 82 86
9.38499 -4.62864 -5.10124 108 113 123
9.47378 -10.3114 -6.88261 169 165 178
11.3637 10.7756 -6.73286 95 44 80
17.6161 11.1181 -9.10298 93 56 89
10.7458 10.912 -6.5323 100 49 78
-16.3888 -5.3791 -7.94958 43 39 62
16.8097 11.1364 -8.71884 209 216 221
14.9126 10.8073 -7.88705 90 93 103
13.2684 10.9628 -7.33642 145 150 156
9.90551 -7.04311 -5.70455 170 177 200
-16.754 -3.54026 -7.71511 78 115 205
9.33269 26.0203 -11.6438 79 83 105
9.76167 -15.3849 -8.42324 64 54 80
9.34456 -11.4089 -6.86457 145 144 156
9.78314 -10.9081 -6.77058 58 53 69
12.9834 11.2116 -7.12051 94 48 80
11.4481 10.8155 -6.47192 95 46 80
9.41128 -4.83658 -4.80794 156 152 170
23.5266 12.1858 -11.2172 130 136 138
18.4077 10.8034 -8.87142 85 53 90
9.71027 -7.92586 -5.687 184 186 212
22.6613 11.0405 -10.5283 64 66 72
18.2783 11.3513 -8.88483 214 218 224
9.53447 -7.0423 -5.31462 116 122 116
16.4229 11.0452 -8.06424 87 90 102
9.06276 17.2725 -7.75872 168 177 177
9.05376 -11.5194 -6.53007 67 71 83
-8.87015 10.2734 -5.35568 83 73 73
-16.9636 -3.53381 -7.3607 38 38 53
19.8848 11.1645 -9.19911 83 56 97
9.5957 19.4857 -8.47683 164 165 165
9.79032 25.1972 -10.6518 207 228 217
14.6829 10.882 -7.21506 146 151 150
13.0479 10.9575 -6.5834 92 49 82
11.3593 10.8032 -6.02469 216 214 230
9.08877 -6.20803 -4.69262 165 158 175
18.0831 10.8157 -8.22992 213 217 230
23.1569 10.9453 -10.0157 122 128 136
8.26297 24.8567 -9.94576 87 83 88
9.47934 -9.88782 -5.68375 200 205 224
9.52623 18.7965 -7.79715 64 65 79
20.4237 11.2205 -8.80782 200 209 214
9.32101 19.3745 -7.91795 132 141 159
9.28506 -4.13744 -4.11264 160 158 172
26.0309 10.8733 -10.654 55 54 58
13.9845 10.8594 -6.54153 94 48 82
9.54398 -15.0461 -7.26962 66 58 78
16.7923 10.9962 -7.40317 138 149 155
12.3918 10.8804 -5.97066 218 217 230
9.57203 20.9261 -8.3465 159 161 165
10.3682 26.0034 -10.1797 77 68 66
13.3639 10.9929 -6.25035 216 218 220
11.3538 10.6715 -5.56618 76 77 81
9.76271 -8.54418 -5.16042 158 152 172
9.50835 -5.00039 -4.24374 160 157 171
22.8665 11.1291 -9.21785 82 61 103
21.3489 11.1578 -8.65569 219 224 239
20.1836 11.2398 -8.20601 86 88 91
14.9651 10.7457 -6.48679 88 52 87
17.7652 10.8282 -7.31441 137 144 150
9.42381 19.9974 -7.63456 74 79 94
11.8482 10.5967 -5.44002 76 75 78
14.3145 10.8698 -6.1646 217 221 236
9.32789 -6.4169 -4.27733 162 158 171
10.2739 26.6418 -9.77465 246 238 230
9.36789 -4.22556 -3.83682 63 57 73
9.2957 -8.39141 -4.66015 97 89 121
16.4909 10.9929 -6.66383 89 52 87
9.5256 -5.2139 -3.96662 57 53 62
9.48292 -4.62802 -3.86003 60 61 79
30.1455 11.0303 -10.9244 55 56 63
-16.5681 -2.82845 -5.96446 81 119 215
-15.3699 -5.69467 -5.86521 44 41 65
9.56387 -10.5149 -5.20983 161 160 171
28.0167 11.0703 -10.1407 143 148 152
14.3911 10.5445 -5.79423 211 209 216
9.9456 -12.8796 -5.81545 55 47 64
-8.9701 10.3051 -4.32055 56 47 46
11.3881 10.6647 -4.93343 81 80 87
10.1516 27.1671 -9.27676 89 86 97
9.38482 -8.26795 -4.4117 156 151 168
17.6251 10.9399 -6.63289 90 56 98
9.27366 -6.40881 -3.93778 59 61 70
26.4192 11.0875 -9.19302 79 65 108
16.8368 10.9815 -6.26367 204 206 213
9.61931 18.8727 -6.4985 68 56 85
-15.9898 -2.86319 -5.35039 41 39 54
9.66973 -11.0061 -5.00935 106 110 116
22.4582 10.8148 -7.8341 78 81 86
18.2974 10.5467 -6.41441 82 56 95
13.1748 11.0208 -5.16367 76 78 87
11.1345 10.6668 -4.59087 121 143 159
10.1501 10.5837 -4.3024 94 43 73
9.35359 26.3469 -8.36712 254 245 246
33.6899 10.9443 -10.8237 56 55 65
31.2322 10.9259 -10.0145 123 131 136
18.1595 11.0934 -6.32852 212 217 229
9.47902 -10.4968 -4.59865 161 157 171
10.657 10.6536 -4.35765 97 46 70
9.81843 -8.90455 -4.28996 67 66 66
20.111 11.1199 -6.7853 82 57 97
16.7354 10.5497 -5.80093 200 199 216
9.51556 -7.52399 -3.892 133 129 136
9.80905 -15.2275 -5.69667 129 140 144
16.4319 10.9169 -5.66658 78 79 83
9.26165 17.4718 -5.55884 174 187 184
9.47398 22.235 -6.8901 197 204 204
-29.417 10.71 -9.18791 64 59 57
13.2278 10.7403 -4.7893 140 147 153
9.62624 20.3654 -6.27762 68 59 87
17.9676 10.5812 -5.81895 207 207 221
9.36957 18.8886 -5.77662 160 160 169
10.7013 10.7107 -4.07155 97 43 69
8.92845 10.7439 -3.72235 150 146 149
9.24619 27.3348 -7.84475 77 70 78
9.56651 -10.233 -4.26876 65 60 86
26.6973 11.0665 -8.0193 96 97 107
14.8119 10.5316 -4.91824 75 79 90
9.65383 -10.9387 -4.34823 69 66 72
20.3989 11.0198 -6.30954 201 208 220
14.3655 10.7318 -4.8082 141 145 152
11.4163 10.6213 -4.03511 100 36 66
10.0049 25.3264 -7.08476 57 49 54
9.7987 -15.6495 -5.34814 48 46 65
22.8469 10.9018 -6.67787 87 69 103
9.40908 18.3849 -5.28273 65 65 66
9.72812 22.1597 -6.26225 72 61 91
9.15761 10.6426 -3.49297 239 232 232
9.56321 20.7474 -5.76981 159 162 160
9.98418 -20.1228 -6.30002 55 45 65
35.2746 10.6316 -9.60447 154 159 171
18.1174 10.3783 -5.34342 75 74 79
10.2429 10.6523 -3.6474 211 210 221
11.6781 10.5086 -3.86819 102 47 68
9.48796 -15.1047 -4.89322 65 55 80
12.9912 10.7435 -4.09789 101 41 65
10.743 10.7128 -3.65573 211 215 224
-36.7097 10.1682 -9.66144 71 68 75
16.9511 10.8624 -4.88596 140 142 148
9.52099 -4.72624 -2.79007 98 95 118
9.54557 21.141 -5.46495 150 158 172
9.65465 -7.70877 -3.23573 134 129 145
11.3978 10.6399 -3.63008 209 209 213
9.76279 25.2973 -6.37467 190 175 160
9.74015 22.8033 -5.759 180 187 176
9.62725 -12.6122 -4.04097 73 67 88
26.478 10.905 -6.6967 80 69 110
12.1945 10.6419 -3.65195 222 225 231
10.1838 10.5338 -3.25741 89 86 91
-36.6439 10.3762 -8.97641 59 53 55
9.21863 -6.83461 -2.85793 105 98 117
-31.7409 10.3871 -7.79026 190 153 129
14.873 10.5085 -4.02547 88 52 89
10.773 10.7555 -3.32594 100 96 93
12.9145 10.7141 -3.65787 218 217 234
9.27484 -4.26626 -2.45104 164 164 173
22.4638 10.6526 -5.4791 94 96 102
33.9117 10.3723 -7.88387 162 170 182
9.53879 19.1997 -4.49919 193 201 197
11.3375 10.4982 -3.21459 76 81 82
20.4074 10.767 -4.87498 140 146 154
13.6952 10.5508 -3.60052 208 206 215
9.17189 -3.95283 -2.25812 115 111 123
9.36826 -6.60428 -2.62096 165 163 173
30.1074 10.8739 -6.74749 81 70 116
9.29579 -5.24963 -2.34706 77 73 92
9.77834 20.9903 -4.55893 230 239 245
9.25184 -12.0726 -3.28729 71 59 82
9.64982 -8.59392 -2.81238 159 153 170
14.4333 10.4417 -3.4561 206 206 217
9.04776 31.552 -6.27359 60 58 73
8.99613 -3.34627 -1.9863 152 148 161
26.437 10.8117 -5.54347 93 96 104
18.0795 10.2557 -3.97606 85 61 97
16.95 10.8539 -3.82312 209 213 217
33.7242 11.6141 -6.8232 148 150 156
20.2891 11.0401 -4.32071 83 61 101
15.6943 10.6344 -3.52065 213 211 220
9.34534 30.3284 -5.91357 207 205 204
10.0605 -11.2619 -3.06251 157 155 167
-16.2786 -6.50138 -3.43532 35 36 40
9.16777 -3.16141 -1.89967 81 83 100
-31.2765 10.5318 -6.21899 182 165 142
9.73074 -21.2446 -4.56419 147 146 147
-17.8724 -2.7161 -3.31142 35 40 47
17.8081 10.3531 -3.42517 203 205 213
11.3057 10.4264 -2.49805 79 79 85
9.00369 -3.33792 -1.71028 134 134 149
22.8015 10.6779 -4.18961 82 66 110
20.6537 10.9472 -3.87555 198 203 205
9.08148 16.9787 -3.04757 171 178 180
10.9575 10.5958 -2.40248 144 147 152
12.9703 10.7139 -2.59616 75 77 84
-28.7782 10.1331 -5.0244 64 53 49
20.2717 10.4446 -3.44747 203 208 218
9.09039 -3.17249 -1.57829 60 56 67
13.7765 10.4874 -2.54804 78 78 82
11.0815 10.4706 -2.21108 180 193 194
10.1472 -24.9803 -4.40019 75 71 77
9.48879 -19.3067 -3.47816 53 44 56
9.52985 -12.02 -2.46418 122 120 130
26.2632 10.632 -4.18087 83 73 113
9.32849 -9.08756 -2.104 142 141 153
21.1955 10.2606 -3.38252 202 204 212
10.014 -22.4201 -3.87295 74 75 82
14.7389 10.3236 -2.52457 75 76 83
10.1393 10.4133 -1.97658 99 40 64
9.49668 18.3573 -2.84407 65 60 74
10.6738 10.5236 -2.01997 101 38 59
16.573 10.8326 -2.69463 80 83 90
14.3846 10.5513 -2.37391 139 142 152
10.0094 -6.07466 -1.70839 39 34 36
13.3421 10.4401 -2.20212 173 189 188
9.13148 -6.34384 -1.62821 45 42 52
11.3487 10.4171 -1.96085 97 41 64
9.73172 22.5878 -3.11879 175 181 179
9.07067 -9.1684 -1.84158 44 39 50
9.39068 -8.79062 -1.85146 44 40 49
29.6974 11.2962 -4.07347 158 160 171
9.57026 19.9813 -2.71805 59 59 67
22.3947 10.4624 -3.10677 101 107 103
14.5212 10.4399 -2.21644 176 186 188
12.9717 10.5738 -1.99118 97 42 67
9.54498 18.9524 -2.52895 172 184 178
9.9643 -12.3347 -2.16727 42 33 50
16.8148 10.6124 -2.37628 139 144 149
9.75504 -21.3963 -3.11973 153 149 158
10.1687 10.417 -1.6296 101 45 67
-14.4633 -4.59573 -1.89678 56 57 53
11.3385 10.384 -1.63215 101 37 60
9.09894 10.5101 -1.47486 212 206 206
26.2106 10.5478 -3.06783 85 87 93
9.73287 10.4654 -1.47293 203 196 193
9.19521 -18.5497 -2.45924 120 119 133
12.9883 10.5762 -1.67819 98 45 65
9.36364 -8.42664 -1.41165 186 192 220
9.12672 -6.37155 -1.25933 183 191 215
11.0222 10.4797 -1.45185 177 188 192
9.76976 -8.10605 -1.39707 189 201 223
9.55009 -7.57864 -1.30152 192 198 223
9.696 -21.2348 -2.49854 144 144 150
14.769 10.2705 -1.64529 94 41 64
-8.45605 9.92221 -1.1623 218 231 241
9.46736 -12.245 -1.59771 113 111 124
16.4848 10.665 -1.73251 93 43 67
8.76469 10.4757 -1.16887 84 81 96
-15.0784 -2.57534 -1.46628 62 63 78
9.4175 -8.11903 -1.19483 48 42 61
9.20065 10.511 -1.02443 201 203 215
9.5846 -10.7829 -1.26452 114 1 90
9.68271 -12.9938 -1.38896 38 20 47
9.65311 -7.76512 -1.02906 191 197 222
-8.20646 9.89091 -0.918201 73 75 75
15.948 10.5448 -1.26235 166 168 178
10.7649 -26.8568 -2.16521 64 60 70
25.8801 10.3094 -1.74299 90 42 66
-8.50213 9.9552 -0.760854 236 245 253
-9.08295 9.90855 -0.783124 235 237 246
9.67388 -10.4013 -0.968206 122 94 124
9.87669 -19.4953 -1.35177 135 141 143
9.45769 21.2591 -1.08662 75 56 72
9.68309 -9.07866 -0.730589 46 42 57
9.56175 19.1072 -0.954806 153 153 146
9.43351 -6.86039 -0.613224 65 62 73
16.7902 10.4301 -0.865107 206 209 218
10.0624 10.3541 -0.598365 230 233 227
17.8839 10.3972 -0.79586 192 195 204
10.0387 -21.8109 -1.12044 47 44 59
9.76918 -11.5627 -0.671767 124 136 147
9.51487 -10.0245 -0.613192 127 137 150
27.2936 10.2677 -0.990702 178 182 189
19.9069 10.1012 -0.776891 197 200 210
9.46131 8.10943 -0.366124 222 225 221
9.95476 20.5363 -0.613049 73 70 82
-9.11237 9.92835 -0.347117 63 69 58
18.3003 10.1255 -0.472765 37 35 39
10.5206 26.6208 -0.689533 182 183 195
10.4071 29.5903 -0.729602 193 195 197
9.17318 -3.57561 -0.212532 129 129 142
-12.179 9.85092 -0.315113 57 57 60
10.0081 10.3881 -0.133778 73 69 71
10.874 10.6711 -0.117392 66 63 65
9.98856 7.49166 -0.0882804 44 42 52
9.57872 -12.4745 -0.144511 111 113 120
8.80221 11.4725 0.0381149 72 77 86
9.21212 -12.4143 0.0535621 45 32 52
9.51029 -11.8586 0.0494704 69 3 64
9.69216 8.10076 0.120594 204 208 214
11.2147 10.0891 0.16551 210 217 221
-8.61802 9.93341 0.124209 229 233 249
10.9295 10.5489 0.221663 209 213 217
9.51441 -8.98673 0.162144 47 43 52
8.82579 12.1165 0.289401 112 131 117
9.66265 14.1669 0.438127 121 140 128
9.46151 -8.30312 0.342934 171 189 195
9.88454 10.2412 0.423276 73 73 89
4.68224 -11.1564 0.325967 51 51 73
4.27574 -9.33845 0.301807 38 39 57
11.0117 10.2361 0.471267 78 79 90
8.86436 14.9046 0.537419 133 140 144
9.37871 17.0325 0.683677 142 143 150
16.4539 6.22018 0.677791 68 76 101
6.57737 14.5268 0.63733 232 244 253
11.3214 10.1682 0.665826 188 212 215
10.6764 10.2389 0.669514 203 224 228
10.1389 10.2284 0.650424 202 226 228
-8.30783 9.83539 0.545573 69 71 80
9.47555 -10.395 0.652501 143 142 150
8.91906 13.5966 0.787219 118 134 126
8.57135 -11.618 0.726836 54 49 62
9.32377 -9.46822 0.678132 142 142 151
9.35347 -7.17828 0.653982 88 84 93
9.4121 -8.73491 0.727147 142 140 152
9.35363 -8.03669 0.76413 140 135 148
26.7059 5.97285 1.73374 144 147 161
-8.18527 9.89854 0.740353 53 53 63
5.7573 -9.48241 0.740934 73 65 73
9.30195 -7.40532 0.786057 143 140 152
8.80269 -6.06225 0.784913 128 130 140
4.9179 -9.63272 0.855053 34 23 41
9.22817 16.7968 1.43225 155 158 161
6.10541 16.7281 1.35176 74 71 82
10.3206 10.1762 1.11616 57 63 73
5.26915 13.4149 1.11389 93 94 108
-14.077 -3.11032 1.14612 40 36 43
9.33916 -6.13829 0.957417 59 58 67
24.1864 6.05189 2.09969 23 28 36
15.6884 6.72254 1.51322 95 100 110
10.6766 10.1744 1.29426 200 222 219
-7.64257 -3.93729 0.786922 65 61 67
16.2737 7.76962 1.66028 103 89 110
-13.3416 -3.48075 1.239 169 149 130
11.2892 10.0892 1.39541 197 218 222
9.25481 -3.67072 0.997565 126 124 138
8.84218 12.379 1.42975 54 51 64
9.70698 -3.35895 1.04299 37 37 51
14.3533 10.0364 1.69841 52 52 66
6.12481 16.2036 1.72406 174 186 189
-8.52213 8.86571 1.19373 84 79 90
-8.68553 9.68837 1.27129 62 60 64
4.57771 -9.4062 1.16615 37 26 40
-6.91245 -5.52179 0.999476 59 62 79
10.9907 10.1121 1.58452 63 64 73
9.27546 13.7379 1.76632 107 127 114
9.08649 10.1904 1.48954 198 202 211
9 12.1625 1.66771 117 132 120
4.15646 -8.88301 1.18684 36 29 39
10.4562 10.1312 1.62555 60 73 74
9.24359 -4.40216 1.22416 124 122 133
14.7008 10.5481 2.10768 170 173 180
9.88079 10.1366 1.6385 77 73 79
-8.54284 9.90558 1.47882 39 36 48
-8.50273 8.78264 1.4379 55 52 64
8.67191 15.2576 2.17328 179 179 183
-7.47596 9.66994 1.46612 47 49 65
10.9786 10.171 1.95488 184 184 191
10.2877 10.2306 1.92547 183 183 190
-5.55069 9.69715 1.4645 58 59 67
8.70439 10.163 1.95254 108 105 112
-8.08432 -2.1303 1.27829 115 115 123
8.57087 -1.44407 1.38779 151 154 162
7.2111 -3.45438 1.34868 78 75 96
-3.44793 -5.03666 1.10662 48 36 63
-3.90842 8.43237 1.38727 166 166 173
8.20799 -1.09612 1.41915 81 76 79
-2.61502 -5.91251 1.23172 137 133 150
6.574 -3.45517 1.33344 80 81 97
5.62296 -3.50189 1.35572 143 138 152
-3.29764 8.75379 1.6281 54 49 71
-2.79435 -4.74278 1.20615 58 53 74
-2.25585 -5.08109 1.2782 58 57 70
6.99145 -1.11647 1.4947 77 74 94
4.39037 -3.61312 1.30921 128 119 139
6.27338 -2.05626 1.50828 145 140 146
6.65215 -1.20319 1.51715 135 131 145
4.65042 -3.41586 1.42374 127 127 136
-3.39014 6.64448 1.61189 88 88 102
-4.22514 5.59639 1.53266 87 82 91
-2.44508 -3.94879 1.3346 73 58 79
-2.35327 -4.01235 1.38596 164 164 169
-3.31007 -3.00856 1.34905 129 125 132
-5.39192 2.71827 1.49247 136 139 151
-1.6339 -3.72083 1.34978 66 61 88
-2.81091 -2.84251 1.31499 51 45 59
-3.92417 4.59391 1.51023 131 130 139
-3.47626 -2.19469 1.3351 133 140 149
-2.53143 -3.15559 1.37791 106 110 137
-1.67828 -3.5564 1.37709 179 180 193
-2.95904 5.34077 1.53966 128 129 141
-2.89007 -1.93345 1.3721 136 136 145
-3.0377 3.78305 1.52728 118 125 130
-2.90098 3.8389 1.53269 123 125 127
-2.78954 3.8865 1.54405 53 50 60
-2.42468 4.14675 1.56939 162 166 167
-2.91172 3.12966 1.5072 122 123 126
-2.78648 3.51123 1.57426 51 49 59
-2.65389 3.30965 1.57336 142 147 152
-2.67235 3.00738 1.58196 126 130 133
-2.67712 2.86099 1.54711 42 46 60
-2.21141 -1.06252 1.45916 145 144 155
9.11886 -2.59212 -9.90021 41 39 60
9.17925 -3.73202 -9.60509 53 55 83
8.79326 -2.6882 -8.78843 135 137 148
8.42889 10.6042 -11.268 106 104 111
9.0006 -4.86925 -9.17525 136 134 148
9.59143 -5.72277 -9.93629 134 132 149
9.14658 11.2744 -11.2864 58 56 65
9.59909 -12.6729 -12.9643 83 76 82
9.16783 11.148 -10.312 203 203 209
9.47079 -4.74951 -8.40036 66 70 86
9.6613 11.0996 -10.2779 205 197 201
10.0981 -10.9188 -11.1978 52 52 73
11.7484 11.1648 -10.8279 59 55 62
9.23679 -12.9661 -11.4374 69 64 75
9.03224 12.9129 -9.66789 64 67 85
9.66937 -8.29508 -8.77029 65 65 77
9.59091 -4.69621 -7.21413 165 162 181
14.0395 11.0498 -10.7884 54 55 57
11.7348 11.084 -9.20934 93 43 75
15.1958 10.9425 -10.6081 54 54 60
10.9264 11.0766 -8.66257 211 220 214
13.4298 11.0118 -9.71665 163 172 180
15.6572 10.7458 -10.4341 59 58 62
9.23929 -4.03111 -5.96014 60 62 86
11.1142 10.8692 -8.21319 210 216 228
10.3063 -11.2225 -8.77906 55 42 81
9.52144 -4.97301 -6.18523 52 57 69
9.22533 -7.18331 -6.46216 168 164 181
11.5308 10.8773 -7.82371 92 96 106
9.02692 -6.11266 -5.97369 58 64 78
-16.4442 -4.14191 -8.88945 46 49 61
10.9482 10.9817 -7.46584 150 154 159
15.0737 10.7875 -8.94502 87 51 86
9.58461 -7.03304 -6.30508 54 55 80
19.0319 10.9347 -10.5346 60 59 73
13.4177 10.8594 -8.19384 209 213 225
12.3752 11.1144 -7.89439 88 91 102
9.61863 -4.3849 -5.49272 149 153 181
12.8093 11.0315 -7.92979 90 93 104
-15.53 -5.04327 -8.09216 84 118 212
11.6791 -2.94066 -5.93651 49 42 50
14.5849 10.8165 -8.16739 216 218 233
9.74345 -6.79394 -5.75064 169 171 194
19.7114 10.9047 -9.98527 131 135 137
16.8283 11.2385 -8.81147 203 215 220
-16.8633 -3.52668 -7.90726 77 114 206
9.44599 26.135 -11.9159 59 61 100
11.6943 10.8893 -6.66333 93 43 77
-16.086 -5.27482 -7.6492 54 59 74
4.53648 -11.7846 -5.98243 63 60 74
9.03802 -4.03324 -4.51062 159 153 170
21.7413 11.3744 -10.3179 130 142 151
19.0402 10.9767 -9.10945 84 54 93
17.6564 11.116 -8.57053 221 220 240
11.0344 10.9968 -6.28474 217 221 221
8.56325 26.3677 -11.2383 168 188 195
15.5915 10.8803 -7.7283 85 87 97
12.8617 10.9866 -6.69782 91 46 81
9.72625 25.4146 -10.7794 185 193 199
7.95853 -18.3706 -8.80833 69 67 77
9.40511 -18.8314 -9.22492 67 55 71
-16.7546 -3.55558 -7.17592 38 37 49
9.09633 21.5025 -8.97068 53 55 73
9.78402 -10.1929 -6.06285 191 196 211
11.0851 10.6872 -5.82791 206 208 220
-17.1067 -3.13861 -7.11365 81 114 210
9.35877 -5.04465 -4.49291 128 135 137
23.6891 11.0004 -10.1706 140 147 152
10.376 10.7549 -5.52126 86 87 90
9.18818 -14.653 -7.11547 63 56 81
13.4576 11.0795 -6.36001 199 207 202
9.58517 -10.6123 -5.79008 56 56 81
14.9317 10.5475 -6.48205 90 49 88
11.5047 10.656 -5.43239 81 80 83
19.1866 10.9087 -7.76489 87 92 101
14.8886 11.2932 -6.47854 205 210 214
9.35017 27.0339 -9.80915 251 243 243
12.7906 10.8788 -5.55266 75 79 83
9.52108 -14.8297 -6.40924 161 160 170
9.48567 -5.11415 -3.87685 54 55 71
-9.09153 10.3202 -4.40282 48 41 38
-15.2646 -5.65032 -5.70105 47 44 54
9.90105 -7.90875 -4.50912 162 160 175
14.3862 10.5444 -5.74302 212 214 221
11.0169 10.8241 -4.87775 142 146 154
10.5289 27.2557 -9.11839 82 79 89
19.1542 10.8691 -6.71527 81 56 97
9.17285 26.5165 -8.49367 253 247 245
-16.3972 -2.99072 -5.39184 38 31 53
-15.9182 -6.34316 -5.49301 41 40 57
14.6473 10.2672 -5.15805 74 79 85
13.3017 10.7998 -4.91774 141 145 152
9.81056 18.3074 -5.82863 149 146 148
10.5091 10.7366 -4.17566 94 39 65
11.5938 10.6309 -4.14571 97 39 72
10.8293 -21.6683 -6.96386 53 52 53
12.8185 10.7799 -4.21691 96 41 71
9.27625 10.632 -3.49361 233 231 233
11.4358 11.1589 -3.96308 187 181 178
19.0339 10.6926 -5.36737 73 79 90
9.46996 27.3356 -6.81033 205 197 185
10.9894 10.4621 -3.45254 213 223 229
-36.3366 10.2051 -9.16647 61 56 54
10.0607 -9.06939 -3.46229 55 54 71
9.17443 24.3564 -5.95617 191 173 163
13.7009 11.0885 -3.93557 210 211 215
-31.1002 9.95554 -7.67278 195 159 135
12.2263 10.4598 -3.45398 222 221 233
9.59399 -5.04008 -2.50378 158 153 170
9.01756 -4.19973 -2.29829 159 159 171
29.4319 11.5364 -6.71013 152 157 161
11.4775 10.4811 -3.10724 75 79 81
9.86566 -8.67185 -2.81626 161 154 173
19.0878 10.6225 -4.23978 82 60 100
17.2047 11.0587 -3.93797 201 208 210
27.2372 10.2865 -5.54317 161 170 179
8.91631 -3.37591 -1.76577 135 132 148
12.8128 10.7533 -2.76249 69 76 78
14.5769 10.048 -2.88573 72 72 77
9.71377 31.7518 -5.35004 212 217 210
9.23959 -3.22899 -1.60593 57 54 71
9.40507 -9.16029 -2.17146 142 137 154
24.5343 10.7932 -3.8048 181 190 201
13.3836 10.6801 -2.4087 140 146 153
8.93816 -6.2842 -1.59563 44 38 52
9.93136 -9.20869 -1.94946 43 43 49
