9.44225 -4.68147 -2.76638 98 95 118
9.17926 20.3587 -5.25537 144 154 167
9.50248 -7.57655 -3.18982 134 127 145
11.1939 10.4624 -3.56158 211 211 217
9.36341 24.285 -6.10943 189 173 159
9.24174 21.6735 -5.45732 177 183 175
-15.7027 -2.50561 -4.04206 36 41 56
9.37575 -12.2602 -3.93698 72 66 86
25.972 10.7096 -6.56917 80 69 110
12.0373 10.5137 -3.60471 222 225 231
9.98409 10.3422 -3.19044 84 81 87
-28.6076 10.2209 -7.09476 55 44 38
-37.7533 10.666 -9.25207 60 55 54
9.32718 -6.94671 -2.89095 101 96 117
-32.4001 10.5884 -7.9536 190 153 129
14.6748 10.3775 -3.9719 88 52 89
10.6381 10.6294 -3.28402 100 96 93
12.747 10.5841 -3.61035 218 217 234
9.14531 -4.19118 -2.41935 165 164 173
33.1343 10.1501 -7.7041 162 170 182
9.27978 18.6929 -4.37558 193 200 198
16.1823 10.6354 -4.08585 86 56 97
11.1251 10.3163 -3.15554 78 80 80
19.9272 10.5326 -4.76321 139 145 154
13.5164 10.4221 -3.55358 208 206 215
9.10889 -3.92537 -2.24082 116 111 123
9.19423 -6.46064 -2.5749 165 164 173
9.16979 -5.16788 -2.31719 77 75 92
9.41235 20.2249 -4.38097 229 240 247
9.10023 -11.8639 -3.23261 71 59 82
9.35775 -8.30408 -2.73609 160 155 169
14.245 10.3144 -3.41118 206 206 217
9.30398 32.3449 -6.45167 60 59 73
9.01068 -3.36079 -1.98932 152 150 162
25.9332 10.6187 -5.4384 93 96 104
17.8219 10.1193 -3.91982 85 61 97
16.6025 10.646 -3.74585 208 210 217
32.9001 11.3475 -6.65689 148 150 156
19.9612 10.8728 -4.25123 83 61 101
15.4831 10.5005 -3.47351 213 211 220
8.77631 28.5344 -5.55911 206 206 204
9.48078 -19.3295 -4.4399 58 45 57
9.89118 -11.058 -3.00403 158 155 168
9.21991 -9.91241 -2.79135 160 157 169
-16.4482 -6.57605 -3.46904 35 36 40
9.00751 -3.08891 -1.87233 85 84 101
-31.9053 10.73 -6.3458 182 165 142
9.34218 -20.372 -4.3743 139 134 141
-18.0734 -2.75467 -3.34739 35 40 47
4.95127 2.86968 -0.598549 80 82 93
17.4212 10.1442 -3.3478 203 204 214
11.1136 10.2604 -2.44909 79 76 82
8.87558 -3.27739 -1.68743 135 134 149
22.2584 10.4409 -4.087 82 67 112
20.168 10.7084 -3.78818 198 202 206
8.89814 16.6378 -2.98378 172 177 177
10.761 10.419 -2.35767 144 147 152
12.7205 10.5227 -2.54394 76 76 83
9.31229 18.61 -3.22323 156 153 156
-29.3086 10.3076 -5.11864 64 53 49
9.40979 21.3026 -3.55596 69 49 66
19.9598 10.2945 -3.39503 203 208 218
9.03086 -3.14961 -1.56872 65 55 66
13.534 10.3149 -2.49984 77 78 81
10.8862 10.299 -2.16971 179 191 192
9.67117 -23.7774 -4.19295 75 71 77
8.05937 16.3744 -2.74175 167 166 166
9.10202 -18.4985 -3.32704 54 45 57
9.28688 -11.7063 -2.399 123 121 130
25.6836 10.4106 -4.0851 84 74 115
9.19919 -8.95529 -2.07443 142 140 153
20.6206 10.0038 -3.28667 203 203 213
13.0139 10.4006 -2.32991 142 146 152
9.61947 -21.5105 -3.71906 74 75 82
14.3952 10.102 -2.45272 75 75 82
9.9404 10.2256 -1.93836 98 41 64
9.26731 17.9305 -2.77497 65 60 74
8.84093 -14.2555 -2.61042 56 56 64
10.5174 10.3803 -1.9955 101 38 60
16.2965 10.6629 -2.65391 80 83 89
9.30715 -5.89029 -1.65515 61 57 60
14.1085 10.3633 -2.3281 138 142 151
9.81089 -5.93319 -1.66691 39 34 36
13.1084 10.2698 -2.15962 173 187 187
8.97526 -6.22029 -1.59696 45 42 51
11.141 10.2409 -1.92593 97 40 65
9.23045 21.4656 -2.95533 175 182 179
9.17473 -9.30195 -1.87015 44 41 50
9.28527 -8.69091 -1.83482 44 38 51
29.1083 11.0855 -3.99327 158 160 171
9.30578 19.4483 -2.64257 59 59 67
21.9006 10.2478 -3.03899 99 104 103
14.2316 10.2479 -2.16778 177 186 191
12.7645 10.4169 -1.96543 97 42 65
9.24911 18.3911 -2.45851 177 186 181
9.72238 -12.0154 -2.11099 43 35 51
16.5803 10.4741 -2.34372 139 144 149
9.39473 -20.5815 -3.00301 153 149 158
9.97531 10.2337 -1.59254 101 45 67
-14.5987 -4.64518 -1.91296 56 57 53
11.1275 10.2044 -1.59574 100 38 61
8.93935 10.3368 -1.44436 212 205 207
25.73 10.3645 -3.0126 83 86 91
9.58976 10.3207 -1.44604 199 193 190
8.76412 -17.6411 -2.3403 121 121 131
12.7865 10.4223 -1.65065 98 45 66
9.24023 -8.30736 -1.393 185 192 219
8.96119 -6.239 -1.23236 183 190 215
10.8387 10.3176 -1.42648 175 183 188
9.66271 -8.00975 -1.38051 189 201 223
9.45622 -7.49759 -1.28757 192 198 223
9.01293 -19.6726 -2.31328 142 141 148
14.5817 10.1489 -1.62515 94 41 64
-8.55146 10.0268 -1.17709 218 231 241
9.26363 -11.9619 -1.55913 112 110 122
16.2597 10.5288 -1.70966 93 43 67
8.62782 10.3244 -1.15167 84 81 93
-15.4963 -2.67363 -1.50509 61 63 77
9.29733 -8.00839 -1.17985 49 44 62
9.02836 10.3301 -1.01087 200 203 216
9.39532 -10.556 -1.23976 115 6 88
9.35223 -12.511 -1.34074 39 25 44
9.51058 -7.63882 -1.02036 191 197 222
-8.29735 9.99339 -0.929984 73 75 75
8.83447 -3.37474 -0.755874 128 123 137
15.7304 10.4105 -1.24598 166 168 178
10.0788 -25.0989 -2.01327 61 54 69
25.4249 10.14 -1.71344 90 42 66
-8.60032 10.0626 -0.771197 236 245 253
-9.18206 10.0097 -0.793171 235 237 246
9.38145 -10.0522 -0.943967 122 97 128
9.54005 -18.8184 -1.31036 135 141 142
11.7288 8.54643 -0.66978 203 206 218
9.09059 20.4579 -1.02765 75 55 72
9.57632 -8.97145 -0.720958 46 42 57
9.22321 18.4563 -0.917097 155 156 149
9.38783 -6.83404 -0.611371 66 64 76
16.5633 10.2985 -0.854403 206 209 218
9.8793 10.1799 -0.585301 231 232 227
17.5623 10.2222 -0.77926 191 194 204
9.63861 -20.9272 -1.0723 47 43 59
9.36263 -11.0386 -0.647749 123 136 146
9.27277 -9.74054 -0.598633 129 139 151
26.5814 10.0225 -0.961665 177 182 188
19.6406 9.97148 -0.767133 197 199 208
9.67162 19.9723 -0.59713 73 70 82
-9.19779 10.0168 -0.353952 62 66 55
18.0673 10.0055 -0.469762 38 35 37
9.86113 24.9978 -0.642224 182 182 195
9.9033 28.1922 -0.695771 193 195 197
9.11309 -3.54775 -0.210264 129 129 142
-12.3247 9.96069 -0.31996 57 57 60
19.8878 9.92904 -0.329539 36 34 42
9.83502 10.2214 -0.129917 72 69 70
10.6707 10.4925 -0.115624 65 62 65
9.75101 7.33259 -0.0774607 43 42 50
9.32808 -12.1211 -0.141148 111 113 120
9.03439 16.2946 -0.0195906 136 141 157
8.64838 11.2856 0.0292859 76 81 88
9.44266 -11.2392 -0.0191198 115 126 137
8.92457 16.8868 0.158335 56 53 58
9.06023 -12.1987 0.0552637 45 32 52
9.28745 -11.5621 0.0550962 69 5 63
11.1266 10.0097 0.164121 210 217 222
-8.72036 10.0434 0.124688 229 233 249
9.26854 -9.87146 0.17035 126 136 148
10.6858 10.3358 0.215677 210 214 218
9.43004 -8.90756 0.153953 48 43 55
8.64594 11.886 0.279294 112 130 119
6.5921 15.1284 0.329199 57 52 68
9.50116 13.9419 0.429304 121 140 128
9.25396 -8.10333 0.340801 173 187 191
9.73081 10.0935 0.415355 74 72 86
8.22018 -20.9028 0.537107 47 51 67
4.21249 -9.19125 0.299679 38 39 57
9.07061 -11.8479 0.471656 104 97 109
10.8239 10.0752 0.461742 75 79 90
8.46433 14.2915 0.505939 124 127 134
9.08929 16.5318 0.654563 142 142 150
16.0736 6.09898 0.663085 67 75 101
6.23016 13.817 0.60718 232 243 253
11.1216 10.0031 0.649638 187 211 216
10.5078 10.0891 0.655724 202 224 227
9.9703 10.0717 0.637211 201 225 228
-8.40841 9.9463 0.551406 69 71 80
9.23453 -10.1073 0.640067 142 140 151
8.90833 13.5583 0.789401 119 136 127
8.53741 -11.5737 0.720481 54 48 60
13.218 9.35483 0.886001 74 82 89
9.1263 -9.24973 0.655554 142 142 151
9.29106 -7.12813 0.650434 85 82 91
9.27325 -8.59714 0.71511 141 141 152
9.2615 -7.95101 0.758438 140 135 148
26.2842 5.88917 1.70528 144 147 161
-8.28494 10.0109 0.748719 53 53 63
5.33521 -8.7088 0.694964 73 66 75
9.2864 -7.4039 0.788984 143 140 152
8.81281 -6.33547 0.796133 140 136 147
8.73553 -6.011 0.780387 128 130 140
8.98727 14.1967 1.21809 53 51 64
4.76336 -9.29826 0.830181 34 25 41
9.03937 16.4717 1.40244 156 161 164
5.96793 16.3645 1.31847 74 71 82
10.2094 10.0737 1.10257 57 63 73
5.07038 12.9346 1.07223 92 93 105
-14.2093 -3.14604 1.15802 40 36 43
9.31183 -7.09839 0.998333 99 88 106
9.30386 -6.1145 0.949116 60 56 71
23.8347 5.97378 2.06818 23 28 36
15.3981 6.61372 1.48662 95 99 110
10.5024 10.0211 1.27522 200 221 219
-7.67693 -3.95233 0.791825 63 60 67
16.0917 7.69033 1.64042 103 89 110
-13.4617 -3.5183 1.2513 169 149 130
11.092 9.9275 1.37502 196 218 222
9.10679 -3.59568 0.989036 125 124 137
8.71142 12.2061 1.41536 52 51 62
9.58993 -3.30273 1.02582 37 36 50
14.303 9.99462 1.69743 52 53 65
8.79946 11.4953 1.23105 53 54 64
5.98457 15.8468 1.68153 174 186 189
-8.6145 8.9545 1.20635 84 79 90
-8.78896 9.79576 1.28603 62 60 64
4.49978 -9.2252 1.14738 37 28 39
-6.93253 -5.51484 1.01505 61 64 81
10.8724 10.0105 1.56581 63 64 73
8.80798 13.1037 1.68096 103 122 112
4.23162 -7.3009 1.01046 35 28 40
8.96896 10.0692 1.47384 198 201 209
8.83392 11.9515 1.6392 116 133 119
4.10852 -8.77491 1.17611 36 29 39
8.66894 -4.54748 1.14021 136 128 146
10.3452 10.0307 1.60658 60 73 74
9.18229 -4.36857 1.21725 124 122 133
14.123 10.1801 2.02501 170 172 182
9.72987 9.99378 1.6142 73 73 82
-8.64803 10.0193 1.49669 39 36 48
-3.42419 8.44405 1.04855 159 161 166
-8.66869 8.93702 1.4632 55 53 63
8.42649 14.8511 2.10995 178 179 183
-7.62937 9.85306 1.50569 46 49 62
10.7713 17.0322 2.65377 181 182 186
5.68782 13.5738 1.86257 79 76 102
10.7861 10.0071 1.92001 185 184 190
10.1385 10.0933 1.89859 184 183 190
-5.62738 9.82196 1.48475 58 59 67
4.98066 -6.81076 1.31979 128 125 130
-7.17463 8.96975 1.59373 130 136 144
8.601 10.0515 1.93365 107 103 111
-8.12846 -2.14572 1.28617 115 115 123
8.48322 -1.42084 1.37543 146 147 159
7.18337 -3.43497 1.34062 80 77 98
-3.50875 8.56267 1.35198 158 161 168
-3.47331 -5.07928 1.11549 48 36 63
-3.93227 8.48446 1.39365 164 165 173
8.22329 -1.10162 1.42597 82 76 81
-2.64224 -5.98191 1.24497 137 133 150
6.53446 -3.43034 1.32417 79 80 95
5.61812 -3.49954 1.35376 142 139 152
-3.36392 8.91583 1.66037 52 48 71
-2.83902 -4.82515 1.22362 58 53 75
3.83511 9.66334 1.87022 131 119 129
-2.98771 -4.7714 1.24258 55 56 77
-2.277 -5.13592 1.29047 58 57 70
6.94475 -1.1047 1.49277 74 70 92
4.41469 -3.63817 1.31438 129 121 139
-2.2966 8.05964 1.59479 54 51 67
6.29931 -2.07261 1.5212 145 141 145
6.60779 -1.18994 1.50777 134 132 143
4.63459 -3.40226 1.42007 127 127 136
-1.98348 7.34596 1.55581 176 176 176
-3.44025 6.73113 1.63388 89 89 101
-4.30584 5.68632 1.55909 87 82 90
-2.46024 -3.9781 1.34335 73 58 79
-3.01653 6.70775 1.60873 89 90 93
-2.36794 -4.04216 1.39504 164 164 169
5.00572 -2.26587 1.515 80 64 93
-3.32369 -3.02404 1.35531 129 125 132
-5.41291 2.72629 1.49889 136 139 151
-1.64458 -3.75013 1.35884 66 61 88
-2.82238 -2.85731 1.321 51 45 59
-3.94381 4.61377 1.5185 131 130 139
-3.501 -2.2207 1.34729 148 157 164
-2.54338 -3.17424 1.38499 106 110 137
-1.68859 -3.58306 1.38586 179 180 193
-2.97718 5.37009 1.55014 128 129 141
-2.8985 -1.94136 1.37682 136 136 145
-3.05311 3.79816 1.5339 118 124 130
-2.89244 3.83268 1.52948 122 124 127
-2.7998 3.89886 1.55079 53 50 60
-2.92009 3.13704 1.5125 122 123 126
-2.8072 3.53126 1.58645 49 48 57
-2.65405 3.312 1.57444 139 143 150
-4.0089 5.02926 2.51763 166 165 173
-2.67912 3.01373 1.58708 126 130 133
-2.68366 2.86671 1.55196 42 46 60
-2.21571 -1.06622 1.46276 145 144 155
9.02306 -2.55739 -9.78866 42 40 61
9.07733 -3.68462 -9.50404 53 54 85
8.83825 -2.71795 -8.83337 136 137 148
8.33901 10.4962 -11.1436 106 104 111
8.85091 -4.77388 -9.02407 136 135 149
9.49598 -5.6596 -9.83863 134 132 149
9.00644 11.1171 -11.1225 58 55 64
9.43402 -12.4442 -12.7389 83 75 84
9.06611 11.0297 -10.1938 203 203 209
9.37476 -4.6959 -8.316 66 71 88
10.4093 11.0181 -10.5858 67 66 75
9.52289 10.9506 -10.1322 205 198 202
9.95293 -10.7541 -11.0399 52 52 73
8.4933 -5.75933 -7.59447 70 70 81
11.5192 10.9586 -10.6076 60 56 63
10.9906 10.9466 -9.82638 176 188 190
9.09583 -12.7617 -11.2672 69 64 75
8.84677 12.6654 -9.46811 65 67 85
9.66127 -8.293 -8.75584 61 59 73
9.47936 -4.63345 -7.13069 166 163 183
13.7547 10.8405 -10.5639 55 54 58
13.2016 11.0538 -10.3226 138 143 147
11.5508 10.9215 -9.06765 92 44 77
14.9796 10.7961 -10.4557 54 54 60
10.735 10.8979 -8.5154 212 221 217
13.2504 10.8733 -9.5852 163 172 180
15.4248 10.5962 -10.2777 59 58 62
9.16369 -3.99265 -5.91134 60 62 86
10.9762 10.742 -8.1093 210 216 228
10.2159 10.7727 -7.78088 104 113 133
10.162 -11.0573 -8.65767 55 42 81
9.43591 -4.92237 -6.12978 52 57 69
14.6789 9.80263 -8.72088 133 137 139
9.1148 -7.09836 -6.39232 169 163 182
11.3088 10.6822 -7.67032 91 95 105
8.89004 -6.01537 -5.89284 58 62 76
-16.95 -4.30298 -9.16202 47 49 62
10.7635 10.8064 -7.33439 150 153 159
14.9804 10.7169 -8.88435 87 52 88
9.42807 -6.90952 -6.21559 55 56 78
18.6173 10.711 -10.2992 60 59 72
13.2384 10.723 -8.08301 209 213 225
12.1132 10.8962 -7.72506 88 91 102
9.47308 -4.30855 -5.41795 153 159 186
12.5809 10.8497 -7.7934 90 92 104
11.575 -2.90842 -5.88333 49 42 50
14.3205 10.6295 -8.00967 216 218 234
6.74896 -13.432 -7.39514 121 122 136
9.58485 -6.67187 -5.66052 174 177 200
19.2519 10.6683 -9.75304 131 136 138
16.4144 10.983 -8.6014 205 216 224
-17.0298 -3.56587 -7.97883 78 111 203
9.06319 25.0978 -11.4266 61 63 97
11.5233 10.7365 -6.56034 91 45 79
-16.2326 -5.32897 -7.71651 54 59 74
4.46911 -11.6032 -5.88903 63 57 73
9.46733 -10.4321 -6.47115 54 53 70
8.96709 -3.99627 -4.47494 159 153 170
21.1285 11.0807 -10.0538 130 141 148
18.7007 10.7902 -8.9407 83 56 96
17.3856 10.9559 -8.43834 221 220 240
10.8152 10.7958 -6.16361 216 220 221
8.2317 25.3908 -10.8139 168 187 194
15.3296 10.7085 -7.59857 86 88 97
12.6355 10.8063 -6.57998 90 47 84
9.32795 24.377 -10.3163 193 206 208
7.7472 -17.8714 -8.5793 69 67 77
9.94351 -19.9883 -9.73197 68 56 71
-17.121 -3.65605 -7.33693 38 36 48
8.8454 20.9238 -8.71795 53 54 74
9.64384 -10.0421 -5.97815 188 193 207
10.9484 10.5635 -5.75497 206 208 220
-17.3712 -3.19486 -7.21979 79 114 203
9.25045 -4.97953 -4.44683 124 128 129
23.2523 10.8074 -9.98274 139 144 151
10.1995 10.5856 -5.42937 84 83 85
9.6485 -18.9836 -8.59323 59 51 67
8.9061 -14.1886 -6.90539 63 57 80
13.182 10.87 -6.23491 199 206 204
9.39247 -10.379 -5.66429 57 57 78
14.6562 10.3619 -6.33929 88 51 90
11.2944 10.4742 -5.33138 79 79 85
18.8462 10.7262 -7.62882 88 91 102
14.541 11.0492 -6.32892 209 214 220
8.96625 25.968 -9.41703 251 244 243
9.21307 -4.16065 -3.74125 62 64 78
12.5646 10.7009 -5.46159 75 78 83
9.27479 -14.4293 -6.24712 163 160 170
9.40339 -5.06389 -3.84283 54 55 71
-9.17427 10.4094 -4.44617 48 41 38
-15.4019 -5.70704 -5.75009 47 44 54
7.87008 -16.5235 -6.52218 119 112 130
9.64243 -7.66924 -4.39099 162 161 174
14.1352 10.3699 -5.63513 212 213 221
10.8026 10.6309 -4.78815 142 146 154
16.6878 10.9567 -6.28515 186 196 195
10.0983 26.1717 -8.74777 82 79 89
-24.2479 10.393 -8.44541 191 185 189
18.6202 10.5885 -6.5156 80 58 99
8.75765 25.3543 -8.11295 253 246 246
-16.7739 -3.08179 -5.4989 39 34 52
-16.0754 -6.4124 -5.54493 41 40 57
14.5005 10.1628 -5.09102 74 78 86
13.0815 10.6327 -4.83854 141 146 151
9.35156 -8.36766 -4.02408 67 72 79
9.37039 17.5319 -5.57362 150 151 153
10.3206 10.5565 -4.09553 93 42 69
11.3632 10.4323 -4.05679 96 41 75
-8.79 10.3462 -3.53172 230 233 241
10.1656 -20.2785 -6.547 52 49 55
12.6154 10.621 -4.15018 95 44 75
9.11387 10.4591 -3.43273 234 231 233
9.82888 -15.911 -5.29399 58 59 75
11.29 11.0252 -3.91214 187 181 178
18.7426 10.5394 -5.28531 73 79 90
9.02841 26.1102 -6.50536 205 196 185
-7.71796 4.82802 -2.06155 227 206 196
10.8059 10.2991 -3.39055 217 226 233
-37.1211 10.411 -9.36632 61 56 54
10.0986 -9.11542 -3.4775 54 54 70
8.84248 23.4958 -5.73908 190 173 163
13.2812 10.7836 -3.81654 210 212 215
-31.7128 10.1381 -7.82536 195 159 135
12.0385 10.3123 -3.40108 222 221 234
9.49187 -4.97815 -2.47234 158 153 170
8.95105 -4.16374 -2.2807 159 159 171
11.2593 10.2978 -3.05077 76 81 86
9.7323 -8.54622 -2.77673 161 156 172
18.653 10.3972 -4.13592 81 63 103
16.7802 10.8076 -3.84483 202 208 212
26.5207 10.0346 -5.38701 169 176 187
9.54562 -10.4545 -2.84232 157 157 166
9.14628 -14.8881 -3.46277 57 59 71
8.78504 -3.31244 -1.74044 134 132 146
12.6507 10.6228 -2.7246 70 76 79
14.389 9.9274 -2.8489 72 72 77
9.01551 29.5111 -4.95641 212 218 208
9.09248 -6.0093 -1.86617 141 137 153
9.04052 -3.13616 -1.56841 62 53 69
4.11034 -13.4969 -2.34639 96 92 97
9.17213 -8.90943 -2.10772 141 138 154
24.0981 10.6134 -3.73751 181 190 201
13.1285 10.4927 -2.36835 141 147 153
9.04654 -14.7879 -2.68896 54 46 65
8.7623 -6.14348 -1.56847 44 40 52
9.81046 -9.08838 -1.92449 43 43 49
9.50132 -5.87613 -1.5853 59 58 61
10.2719 10.3578 -1.75087 99 42 64
16.1404 10.1999 -2.30696 143 148 155
9.28033 -9.55387 -1.84348 48 41 52
9.43558 -8.07543 -1.66596 80 94 87
9.37968 -3.51708 -1.31116 112 110 129
11.2661 10.185 -1.72157 96 39 57
8.94782 10.3303 -1.55147 214 205 209
12.6477 10.485 -1.79653 95 38 64
9.26442 -9.08897 -1.53958 127 124 133
9.36574 -8.44857 -1.38608 183 197 218
14.4015 9.82835 -1.66081 93 37 60
9.23618 -11.9216 -1.61094 113 107 122
-15.3681 -2.60399 -1.55382 59 48 59
9.22062 -7.42603 -1.25053 188 199 223
9.4429 -3.03842 -0.983859 32 26 34
8.62146 10.412 -1.1429 83 78 95
8.76476 -9.08724 -1.24075 138 0 98
18.4488 10.1298 -1.70997 91 37 55
10.6193 -20.8507 -2.14115 51 47 50
10.2067 -5.71259 -1.02463 93 91 97
22.8493 10.5173 -1.80133 89 42 64
9.19229 -6.48624 -0.918629 185 193 220
9.0766 10.2981 -0.905916 208 210 216
9.53896 -23.4952 -1.74111 40 35 45
-9.56486 10.2361 -0.771232 217 218 231
9.08894 -9.78031 -0.783127 145 140 172
9.41522 -8.15538 -0.705235 124 139 172
9.77648 -19.2369 -1.157 138 142 149
23.7146 10.29 -1.10791 120 125 122
19.9231 10.0082 -0.926905 182 186 192
26.6722 10.0477 -1.08983 132 136 137
17.9741 10.5538 -0.809214 191 193 204
9.37106 -10.973 -0.615035 130 145 155
8.71019 11.1579 -0.402314 170 172 187
18.4678 10.1796 -0.441627 35 33 38
9.13658 25.3918 -0.550254 190 188 195
8.83283 -18.9096 -0.72491 50 45 61
36.9805 9.34275 -0.759277 189 194 206
9.93109 10.2097 -0.150619 73 70 77
15.706 6.24585 0.0509316 38 33 51
8.66647 11.3966 0.122345 65 63 73
9.28102 -11.5353 0.028847 80 1 66
8.73694 16.7253 0.161417 51 48 65
11.6917 10.3273 0.202715 211 215 220
10.3947 10.2157 0.224102 208 214 219
9.52658 10.3012 0.20994 207 208 212
7.68422 12.1442 0.270257 71 75 83
6.67252 13.5749 0.216825 47 45 56
9.05566 16.4447 0.735611 139 144 148
12.7146 8.87532 0.653338 30 28 36
7.06588 16.3169 0.711213 221 235 254
9.07037 -6.53802 0.421328 65 55 78
8.76202 -12.1409 0.668788 52 50 60
11.2777 9.96456 0.766277 196 218 222
-8.05766 9.808 0.654329 51 50 57
6.93644 -10.2542 0.901567 116 107 125
9.27001 -6.65882 0.863658 137 133 147
8.70782 14.8297 1.28449 137 138 143
4.47032 -9.58639 0.867979 72 65 89
11.2393 9.90298 1.27584 197 223 226
7.18303 -9.72406 1.06896 117 107 128
15.3327 6.52453 1.46595 95 97 111
15.6839 7.45972 1.59761 97 94 110
-8.04384 10.0914 1.11223 219 232 254
-12.8926 -3.2796 1.21688 150 137 128
6.46398 -10.2277 1.11576 44 35 48
-7.33557 10.1449 1.1442 223 236 255
10.7078 16.4298 1.96297 61 61 69
-13.1455 -1.84594 1.38863 126 126 138
-2.75897 -6.16271 0.807178 175 173 182
4.39849 -9.47484 1.22479 33 23 38
-6.78283 -4.15341 0.951636 67 69 86
10.4221 10.03 1.63199 50 45 49
9.21014 10.1515 1.47778 197 197 198
-8.64908 9.91315 1.47211 46 45 56
14.6074 9.88653 2.14072 44 42 58
-7.61978 9.8996 1.45535 54 52 70
9.20096 -3.31028 1.24462 49 46 58
8.77872 11.5077 1.76255 121 126 130
-2.71671 -6.89377 1.00202 49 39 55
8.76075 10.4172 1.80939 123 124 132
-5.54564 9.79167 1.4531 58 58 64
-3.44348 -4.9989 1.07317 51 47 63
-2.39375 -6.10758 1.27073 58 46 72
3.23226 -6.25372 1.3769 80 77 91
3.48669 -5.87688 1.33577 71 67 91
3.84141 9.49533 1.84378 124 113 126
-3.19011 -4.77204 1.25678 148 145 151
4.18636 -3.52596 1.41567 61 54 74
-2.87376 -3.6399 1.33456 57 48 57
-3.02597 -3.28581 1.29637 47 43 45
-3.38687 -3.03255 1.37253 126 120 126
3.98166 -2.88239 1.46495 145 144 149
-3.40155 -3.58434 1.65328 51 48 60
-2.96737 -2.39173 1.38529 51 50 72
-2.71166 -2.68037 1.38602 167 172 166
-3.38277 4.04835 1.55869 55 58 69
-2.67231 -1.61908 1.4146 52 51 70
-2.43404 -1.47381 1.47143 55 56 73
-2.18859 -1.2393 1.46425 204 204 214
-2.70857 2.87038 1.55215 38 41 52
10.0542 11.2723 -9.95122 172 182 192
9.31311 17.5309 -9.01135 130 128 138
12.4919 11.0138 -6.02426 216 215 224
12.1662 10.5536 -3.731 205 206 216
9.46754 -7.27423 -1.62878 64 60 78
9.18073 -3.29974 -9.37527 131 129 138
9.2076 -4.62429 -9.76063 55 52 67
8.85231 -2.72107 -8.74516 141 143 152
9.04651 -5.94711 -9.79 57 62 91
9.61852 -4.46144 -9.42182 162 160 175
8.83924 -4.88276 -8.89239 137 138 152
9.45813 -7.98539 -10.4791 49 47 68
9.52201 -12.1602 -12.6447 77 75 80
9.43645 -8.17979 -10.1894 54 50 71
8.2857 10.958 -9.68659 66 67 76
10.411 10.9534 -10.5746 64 65 70
9.92117 -8.05356 -9.87186 159 162 186
9.15826 -9.67191 -10.2116 53 56 80
9.38788 -8.77462 -9.77798 145 145 154
8.8718 -10.5031 -10.1045 139 137 154
10.9019 10.8864 -9.80291 177 189 195
8.96414 12.7829 -9.70145 64 66 81
9.30896 -6.46112 -7.63731 77 86 109
10.3353 10.9798 -9.07367 94 48 81
11.5223 10.7727 -9.02149 91 45 81
9.67888 10.9372 -8.15348 215 210 216
9.54109 -7.03684 -7.42106 160 154 175
9.4225 -10.0684 -8.59037 49 45 61
13.6398 10.8648 -9.69564 154 158 178
12.668 11.1157 -9.32355 94 45 80
9.4572 -11.1781 -8.85002 140 138 153
9.47633 -10.193 -8.19686 58 53 73
9.40795 -4.79747 -5.98861 57 58 90
9.82741 10.9244 -7.20441 200 203 204
11.6799 8.4227 -6.74362 107 87 120
9.32587 -4.18652 -5.43284 156 162 185
13.9311 10.9736 -8.463 220 220 234
12.3212 11.0265 -7.77328 89 93 103
9.42314 -14.5927 -8.79299 105 97 132
9.38406 -8.15062 -6.21824 56 55 77
9.11878 -7.29314 -5.5193 181 186 204
11.4692 10.5355 -6.52989 93 43 80
4.90067 -12.618 -6.35443 65 57 75
-16.381 -5.37045 -7.66817 52 49 60
9.75735 -10.8024 -6.61498 56 54 73
9.27265 -8.09584 -5.48383 56 55 81
7.14107 -16.7598 -8.05959 55 41 67
10.8824 10.4991 -5.69069 205 206 217
8.09043 19.981 -8.0355 69 71 84
-15.9357 -5.85243 -6.79349 92 131 228
10.2364 10.6573 -5.34096 76 84 94
15.4859 10.8125 -6.76116 87 51 87
-3.70543 -10.0669 -4.50858 130 162 247
11.2249 10.2616 -5.07255 74 78 81
9.21912 26.3755 -9.47961 251 243 242
12.7321 11.017 -5.50308 80 84 96
9.0282 -14.0255 -6.08282 162 161 167
9.52978 -5.07758 -3.80976 46 31 69
8.88313 25.9209 -8.37905 255 248 247
24.0191 10.4718 -7.87095 175 186 201
10.2989 10.6078 -4.1696 103 63 83
9.54948 -8.48965 -4.03536 55 54 65
11.3716 10.2816 -4.07518 92 41 76
9.49293 -10.5238 -4.13004 50 46 61
28.7765 10.6526 -7.85345 110 117 112
11.2537 10.9038 -3.89868 172 175 179
9.47321 10.6104 -3.49789 235 228 230
9.42912 -6.90652 -3.15371 50 41 71
21.1496 10.2113 -5.66329 155 163 171
15.4419 10.55 -4.26773 85 52 89
10.7293 10.2498 -3.35392 214 222 228
9.48215 26.8872 -6.55045 197 192 186
13.4328 10.9641 -3.90303 210 211 217
9.33654 -19.3221 -5.25967 100 98 110
7.59318 25.195 -5.80734 71 71 82
9.25484 -14.6364 -4.12989 117 117 119
11.1631 10.0656 -2.84222 73 74 83
14.0394 10.1209 -3.29795 210 210 219
12.6665 10.8005 -3.06892 81 79 86
9.76 10.5106 -2.48129 172 170 176
8.98099 -5.50675 -2.06175 135 133 151
5.03919 -11.8001 -2.55703 128 123 139
8.80643 -3.40662 -1.78632 131 131 143
17.657 10.5261 -3.52253 184 186 190
9.27433 30.1137 -5.21581 208 211 206
20.0559 10.4099 -3.58609 189 197 210
14.9936 10.2164 -2.83334 71 73 78
-11.6474 12.3819 -2.67098 60 57 56
9.13193 -11.1889 -2.50511 125 119 138
9.11122 -6.00917 -1.8898 142 141 155
8.83849 21.0561 -3.47476 139 139 150
9.25035 -8.98861 -2.14107 141 135 154
10.2871 10.4202 -1.82642 98 43 55
9.49713 -27.2951 -4.07741 55 49 63
9.68043 -5.92004 -1.55085 38 30 40
11.2717 10.047 -1.73028 95 34 59
9.05204 -9.37891 -1.74414 59 54 66
9.36131 -20.073 -2.67477 126 126 142
9.3775 -11.3078 -1.88215 57 47 62
8.42676 -22.0722 -2.49965 121 110 128
9.45778 -7.59384 -1.22496 189 198 224
8.85128 -6.1842 -1.01001 182 192 217
9.55678 -3.02234 -0.96196 31 30 36
10.9898 -6.16269 -1.06231 91 89 95
10.8501 10.3526 -1.04588 197 202 211
-8.90785 10.158 -0.879161 214 227 237
14.5538 9.16688 -0.85036 180 184 190
9.38047 10.3273 -0.628165 198 199 208
9.5601 -11.1202 -0.811897 127 127 144
-8.08972 10.1512 -0.207307 37 38 44
10.4552 7.56268 -0.12176 48 47 56
-8.66995 10.0085 -0.0243722 232 241 253
9.2521 -8.6211 -0.0176141 49 46 56
10.1816 -6.35994 -0.000760487 36 24 35
9.43247 10.2575 0.233896 199 196 208
9.1444 -3.94688 0.188661 26 15 36
8.73177 -12.2338 0.579647 58 52 62
14.8685 10.1724 0.785508 27 24 39
-7.90029 9.72788 0.590581 68 60 62
9.16515 -5.90245 0.865588 63 58 71
-0.908929 -0.889666 0.276995 164 161 169
11.0074 9.95654 1.18374 198 222 225
-11.8036 -4.88849 1.00208 31 26 37
8.76067 -3.83458 0.791319 35 25 37
9.4912 -3.11296 0.86939 31 26 40
7.37202 -10.0403 1.15592 126 122 131
-13.2467 -1.43026 1.23115 49 49 65
4.64255 -7.96625 0.906248 35 32 40
6.26718 -9.9645 1.10885 40 28 48
9.35548 14.7053 1.61283 66 65 74
-9.06355 14.0238 1.57014 238 248 254
-13.5886 5.27981 1.39473 33 36 37
9.09538 10.0542 1.34921 192 194 198
15.854 8.31189 2.03349 28 27 42
14.5033 9.72863 1.99264 43 43 61
10.5748 10.1984 1.70704 64 62 68
7.28091 14.6453 2.09449 169 169 177
-3.35173 8.48952 1.10811 150 149 156
4.23612 -6.64598 1.18989 108 100 117
-3.33277 -4.93532 1.31044 141 139 147
-3.26304 -1.36003 1.43561 134 133 143
9.38485 -4.70275 -10.0132 55 53 68
9.42602 -5.46582 -9.40504 139 141 152
9.50238 -10.1477 -10.8903 50 41 70
9.23855 10.983 -9.77268 201 204 211
9.60696 -4.67524 -8.14071 57 75 115
9.80304 -7.65979 -9.46031 168 164 181
9.56078 -6.58947 -8.28798 59 72 114
8.50653 12.3138 -9.43315 62 65 79
9.10232 -8.898 -8.97121 140 138 156
9.25303 -7.76098 -8.09587 49 47 70
9.08603 -4.63914 -5.55464 58 59 91
9.10933 -9.13201 -6.79862 136 131 145
13.7557 11.1062 -8.34314 185 186 200
-9.74501 -6.49763 -5.97345 58 61 95
9.43343 -14.4379 -8.71258 114 102 126
9.18588 19.3945 -9.42533 43 43 52
12.1217 10.9418 -7.12146 63 68 107
9.56779 10.6824 -5.72392 205 200 211
7.39722 17.3429 -7.40898 46 48 62
7.70163 -12.9081 -6.54593 65 62 84
-15.8137 -5.92558 -6.83311 94 128 226
-16.8768 -3.59669 -6.70467 41 38 51
14.1528 10.7461 -5.90037 219 221 234
8.98297 25.9329 -8.80492 252 247 249
9.31123 -4.78444 -3.54128 58 68 114
-16.6678 -6.22058 -5.80896 40 41 50
11.7815 10.4059 -4.35188 95 46 82
-7.59956 34.2602 -9.80792 151 164 177
16.68 10.1796 -5.4192 145 153 168
9.4991 10.4762 -3.39364 234 230 231
18.5094 10.4552 -4.68585 75 78 85
13.1633 10.4382 -3.58296 187 193 202
7.56577 26.0784 -5.7223 60 57 72
14.5971 10.8534 -3.68602 207 202 201
8.36278 -5.28268 -2.10995 133 131 140
9.61043 -4.75072 -2.2798 158 156 167
11.7235 10.3222 -2.74325 70 72 79
10.5964 -8.88824 -2.84916 165 161 174
8.87843 -9.43439 -2.47136 157 154 161
9.11433 -5.99114 -1.93349 138 139 151
11.9379 10.3682 -1.80655 96 36 57
9.69036 -5.82146 -1.44648 35 29 38
8.79187 -3.84641 -1.15923 37 30 38
8.27437 10.3596 -1.06143 89 88 102
8.28095 -15.4843 -1.62552 52 44 51
-9.6613 10.6137 -0.986757 220 228 227
7.66244 -17.6223 -0.89535 71 65 73
9.67808 -5.792 -0.0232954 39 32 29
8.68612 -3.9321 0.665807 33 31 37
6.14856 -10.277 1.03324 52 50 55
7.39962 -10.2591 1.12114 124 117 129
9.03173 10.1378 1.18518 200 201 205
8.96225 12.0942 1.36784 103 123 109
8.66806 13.5848 1.41496 66 72 73
9.1439 -6.65167 1.03366 122 118 130
15.8491 8.43445 1.86383 30 29 39
10.2609 9.98158 1.58732 58 54 62
9.54876 -11.2514 -7.80515 142 139 148
-16.3719 -5.14523 -7.67511 57 54 63
8.76431 -5.22885 -8.31278 138 136 146
9.45614 10.6288 -7.76539 208 207 207
10.0174 -7.78523 -7.68408 159 157 174
8.4831 -5.32321 -6.25124 151 147 168
12.9184 10.6951 -8.41263 149 155 165
8.09401 -14.8711 -9.28849 62 60 67
12.2328 10.7678 -7.15534 166 197 218
-16.6161 -4.58365 -8.14434 54 59 65
7.31586 16.2504 -7.4812 47 47 56
9.6536 -11.3808 -5.24814 134 133 141
12.4447 10.7277 -4.81773 81 85 90
-8.72428 10.2241 -3.57064 212 207 215
9.63918 10.4121 -3.39588 177 183 188
12.8715 10.2361 -3.48796 186 193 203
11.4564 10.4512 -2.19783 96 84 91
14.9246 10.167 -2.2468 60 59 79
8.75992 -9.03363 -1.42546 137 1 102
9.40173 -8.76592 -0.198531 46 41 58
10.189 -6.07566 0.514868 60 61 56
9.02919 9.90939 0.712855 194 195 202
7.68553 10.0776 1.16118 102 108 112
-10.5415 -3.33772 1.2794 122 122 131
7.41622 11.1569 -8.42687 63 64 77
-10.3134 -6.37126 -4.7274 111 150 244
-9.03979 10.0577 -1.02933 130 103 101
4.67754 -8.20938 0.935567 35 27 42
-11.0915 -3.18147 1.40353 125 129 131
9.42516 -4.08377 -7.98991 193 216 236
10.6408 10.9137 -9.44438 152 172 190
12.8103 10.9614 -10.0052 164 171 184
9.26138 -6.87518 -7.58736 144 147 157
9.05589 -5.94896 -6.77034 169 170 181
9.5371 -10.4244 -7.65506 165 165 175
3.98703 -9.43334 -5.79112 69 48 144
9.8924 10.5506 -5.96286 217 217 230
21.083 10.8586 -10.3696 148 166 179
8.74635 17.2798 -7.72184 153 153 162
7.73355 24.6201 -10.4725 193 214 208
-11.8003 -7.40839 -6.64666 75 92 162
23.2388 11.1 -10.4996 58 57 65
9.17594 -19.8689 -9.81415 154 153 160
-18.4628 10.8184 -8.0278 96 69 59
24.4131 10.5197 -10.0347 68 67 79
9.42104 20.304 -7.70259 72 71 83
-9.91553 -7.20099 -5.15258 118 157 239
-11.8754 10.5666 -4.97444 70 66 76
9.34516 -22.4412 -9.00196 152 152 156
-17.5021 10.6794 -6.55644 82 69 70
9.53734 -16.0675 -6.92136 118 115 117
29.5336 10.6832 -10.0692 125 131 131
8.39531 -26.5558 -9.89691 116 119 126
9.03118 -9.40206 -4.77548 166 158 175
9.44811 -10.4858 -5.03581 161 160 169
8.74016 17.1334 -5.41052 152 155 160
8.48112 29.1488 -8.68202 78 79 94
-15.6674 -6.47096 -5.62593 103 145 240
7.86245 25.1053 -7.38123 109 106 107
-31.4929 10.7607 -9.94239 196 188 198
9.46617 -15.4542 -6.05808 54 41 70
-31.4245 11.086 -9.42693 70 64 67
-17.5652 -3.1096 -5.31257 91 129 221
8.42312 31.2326 -8.35002 197 202 179
9.45 -6.6822 -3.61684 161 182 194
24.4065 10.3116 -7.01428 86 92 109
-12.5088 5.14432 -3.33267 65 54 48
9.19333 -4.19712 -2.62823 79 75 82
9.37805 -6.65343 -2.99151 168 178 191
35.7945 10.5589 -7.76508 90 92 99
8.4902 29.9414 -5.48516 148 163 151
8.5192 31.0287 -5.47388 72 75 89
13.1609 10.1418 -2.28316 98 108 115
22.2711 9.24716 -3.18446 200 202 215
9.54617 20.1704 -2.76122 59 56 70
9.06058 -3.12791 -1.44207 122 120 131
9.01473 28.8439 -3.71577 141 139 146
17.4858 10.1571 -2.11081 164 173 187
9.71624 10.225 -1.06438 204 206 208
8.94472 -18.6962 -2.0205 124 124 117
9.29992 -7.86649 -1.02733 67 51 73
10.0821 -5.99648 -0.873385 39 20 41
6.1741 10.6764 -0.611097 98 88 103
-9.79937 9.90301 -0.481472 85 70 71
9.73179 24.3302 -0.768032 187 184 181
9.40935 -6.99857 -0.520558 52 41 64
9.54533 10.2559 -0.309307 228 234 244
8.95553 -3.2745 -0.299587 57 46 66
6.16681 10.7752 -0.0558688 68 68 121
9.17446 16.5145 0.351415 74 73 84
9.25684 -9.44922 0.155212 135 1 99
-11.7134 10.0272 0.400013 103 104 118
9.21758 -7.66367 0.403475 193 197 172
6.15636 13.8327 0.522314 255 255 254
-12.0522 10.1317 0.53661 248 255 255
6.35919 13.7562 0.884643 89 104 128
-11.8991 10.0696 0.949173 152 166 178
9.18299 -10.5031 0.958837 100 96 105
8.80939 11.9667 0.989192 112 131 120
-11.0064 10.2096 0.961765 68 67 74
10.8237 10.0438 1.12439 76 77 87
8.95427 16.7512 1.43739 140 140 133
8.82348 16.9655 1.43649 64 70 73
8.69473 11.9971 1.1335 60 59 73
8.93681 12.4885 1.23183 53 53 67
-11.5595 10.1276 1.25968 69 70 78
9.65093 9.99353 1.24252 67 73 83
-7.73113 10.0373 1.17827 90 95 115
-1.57087 2.9556 0.415227 83 86 92
-8.70469 8.94956 1.19863 62 60 75
-6.90331 10.0538 1.31822 222 231 252
-6.28215 10.0805 1.32261 213 223 247
9.78535 10.1032 1.7373 104 113 120
4.70351 -5.10944 1.27764 123 122 125
-3.21182 -5.65567 1.23764 113 116 115
4.04732 -3.85696 1.42285 78 48 101
-2.24499 8.81069 1.61016 143 146 148
-2.4636 -2.83665 1.43228 153 157 155
9.12233 -3.72666 -8.15447 72 68 71
8.73102 11.5382 -9.50108 149 150 159
-11.8916 10.678 -9.47714 224 235 244
-11.1519 10.4678 -8.93313 86 78 82
9.13311 -12.2598 -10.9694 39 6 114
-10.8362 10.4779 -8.65395 78 69 69
9.28794 -7.80864 -8.46859 66 71 86
8.80222 13.5854 -8.90835 145 148 158
8.6615 14.7535 -8.64595 145 144 156
8.9688 16.9221 -9.15231 66 69 87
9.28878 -11.6864 -8.81773 59 53 71
4.6123 -11.9343 -7.60545 69 62 121
-14.4421 -3.82741 -8.06308 54 67 113
9.23694 -9.87938 -7.70754 69 51 69
9.90226 -16.0867 -10.1008 56 48 68
-3.64754 -7.24038 -4.64582 119 145 228
9.97799 -15.9027 -9.61403 151 149 161
10.5648 10.6622 -5.92963 213 210 221
9.67434 24.8061 -10.4924 216 239 217
19.5517 10.4842 -9.06545 129 142 153
9.92396 10.5066 -5.5056 72 74 81
9.27254 -9.63653 -6.37378 62 63 76
-11.4163 10.553 -5.80558 207 167 136
-16.3003 -5.78133 -7.43962 91 128 221
-3.40826 -7.50674 -4.11118 85 97 165
9.28372 -19.1228 -9.44014 77 70 76
8.79113 21.0684 -8.2295 173 182 181
9.15965 -7.80811 -5.39327 61 65 93
8.57122 25.3857 -9.38889 254 247 245
-27.0449 10.4476 -10.8934 190 173 145
14.4122 10.4487 -6.21116 91 55 89
9.3268 7.50282 -3.69747 88 52 91
13.8995 10.636 -5.95176 229 230 246
-9.03959 -6.51588 -4.59658 118 161 249
8.46367 27.2328 -9.3497 60 58 76
-16.8773 -3.17292 -6.31408 42 43 59
13.4081 10.4658 -5.49217 73 68 74
25.567 10.7801 -9.3558 67 80 71
-12.0115 10.3983 -5.04592 233 239 248
14.3705 10.3651 -5.40948 71 70 78
8.90928 24.8554 -7.84152 252 247 243
-11.8013 10.8169 -4.56666 65 36 40
-11.7603 10.4996 -4.38615 88 82 95
10.0719 10.5337 -3.95251 100 46 67
9.17906 18.5737 -5.64808 166 169 173
-12.1278 10.423 -4.46469 236 243 251
9.41541 -19.4698 -7.09493 72 59 79
9.27821 21.2482 -6.15061 72 60 88
-18.4471 -3.07754 -5.49643 91 132 227
8.9214 20.333 -5.59999 73 65 94
8.09842 31.7045 -8.43993 82 80 92
9.34659 18.8214 -5.05551 183 192 183
9.1098 21.3077 -5.33702 167 167 170
8.39461 26.3937 -6.4103 65 64 79
9.31303 -4.93319 -2.96368 47 46 64
8.62412 -4.67813 -2.77364 68 70 89
14.3742 10.2545 -3.85149 88 57 94
-11.7455 10.4069 -3.24394 71 64 64
9.23298 18.2108 -3.94006 76 56 71
9.76731 -11.3019 -3.58312 70 65 77
16.9241 10.3566 -3.9108 91 63 99
-18.0695 -2.62776 -3.95279 94 135 224
-17.2976 -2.79349 -3.81051 40 46 59
25.7052 10.9881 -5.0666 138 143 151
17.1052 10.4208 -3.20472 84 83 79
8.44454 28.9409 -4.23636 84 75 97
9.37308 -23.0285 -4.1938 73 65 78
13.0218 10.2099 -2.13292 170 185 189
-8.26685 7.90934 -1.18309 156 126 108
14.2471 10.0379 -1.8931 94 45 65
8.77581 -19.2146 -2.86898 150 150 151
8.70678 28.0615 -3.10161 206 207 209
9.13223 -8.88907 -1.73121 125 120 133
9.21571 -14.7761 -2.1458 152 150 147
4.25015 4.66879 -0.526659 102 68 85
6.98804 -11.554 -1.37047 105 92 111
9.75221 20.3693 -1.45859 77 54 68
9.02856 -6.29317 -0.782767 186 195 218
-8.68468 9.87509 -0.607237 62 56 75
9.01202 -10.9421 -0.90409 109 0 80
9.98269 24.3818 -1.03839 68 62 72
-9.20456 10.0605 -0.384775 60 67 58
8.77556 25.3793 -0.705259 194 191 199
-11.6369 10.1902 -0.421188 62 58 73
-12.027 10.1418 -0.275653 254 255 255
16.0975 8.03665 -0.212522 43 45 67
11.6054 10.3248 -0.118297 65 63 65
8.91857 -22.0536 -0.223882 35 20 41
8.94995 17.3257 0.215858 47 43 51
9.36058 -11.1569 0.044228 108 113 127
-12.2775 10.0621 0.20839 71 78 77
9.43732 -10.4724 0.1559 130 144 150
11.8464 10.1096 0.381127 86 92 98
-12.256 10.0214 0.465929 65 66 67
-3.87915 12.7867 0.424588 97 88 83
9.90477 10.0363 0.587197 202 224 228
-33.1179 -2.94981 1.28418 46 43 53
-11.7354 10.132 0.673624 42 53 68
-12.2239 10.1246 0.708728 226 222 203
9.08421 -13.5613 0.824755 55 43 61
-10.45 10.2904 0.736834 122 137 139
6.73318 -10.5213 0.74514 40 15 49
-11.4136 10.0545 0.900052 56 46 54
8.64419 11.3166 0.912366 114 133 118
-10.6448 10.1622 0.927667 54 52 60
18.5032 5.65184 1.3541 78 82 93
-10.036 10.2011 0.936055 48 44 58
8.84106 16.1952 1.37791 158 169 170
-10.4485 10.2611 1.08358 166 188 193
-9.6079 10.1072 1.05265 169 186 199
8.83099 11.8942 1.25473 107 125 119
12.2538 9.75582 1.39447 188 214 211
-3.55564 -5.57132 0.72447 41 28 50
5.63764 13.3111 1.34256 226 235 255
-4.21166 13.1994 1.23622 36 37 49
-6.21014 10.2271 1.06646 229 243 254
12.7751 9.8222 1.58194 83 86 83
-13.8087 5.45276 1.47016 49 50 62
-6.56105 11.9627 1.39568 35 35 39
-4.05384 12.8236 1.40714 139 140 142
-6.23078 10.2125 1.31509 211 221 248
8.63407 10.0852 1.56246 119 118 125
5.82844 13.3062 1.68822 188 197 213
-6.50296 10.1132 1.37791 96 97 114
-8.19112 9.9695 1.57017 48 49 66
-6.16107 -5.39444 1.25057 88 95 89
-6.91388 9.95794 1.52667 140 141 146
-6.64461 10.0201 1.53204 55 56 71
-9.06727 6.85819 1.49998 121 121 116
8.80415 -0.619994 1.37455 148 150 163
-7.95713 -2.27681 1.352 50 46 69
-5.77515 10.0109 1.55923 56 53 63
6.53288 -3.4275 1.31314 72 70 91
8.64062 10.0487 1.96957 96 93 98
-2.85716 -4.64056 1.32746 158 160 166
-2.60631 -4.56041 1.29711 167 163 173
6.93144 -1.10498 1.48637 80 73 96
7.6793 6.13904 1.89892 116 108 115
3.90557 9.91544 1.93033 128 116 129
-2.87995 -3.69503 1.35301 58 51 58
-12.9926 17.6772 4.64658 90 86 95
-2.42156 -3.70566 1.36199 59 50 75
-3.59417 5.77182 1.22478 74 80 97
-2.4199 -3.54847 1.4205 160 163 158
-2.50155 7.78709 1.59548 70 67 86
-5.2036 -0.655634 1.41903 104 109 118
-3.53413 -2.25024 1.35959 169 180 177
-2.94366 -2.32636 1.35663 52 52 73
-2.29453 7.34771 1.60678 149 142 154
-3.61987 5.9205 1.5255 119 121 137
-2.60809 -2.16331 1.40018 161 171 161
-3.59171 5.77253 1.5347 66 67 81
-3.36555 -1.485 1.46532 129 129 136
-3.17626 5.37182 1.5669 69 65 83
-2.73834 -1.22145 1.46775 149 148 165
-1.91088 -1.56412 1.44729 98 92 120
-2.17695 -1.42446 1.47135 191 194 196
-2.03672 -1.51831 1.46983 96 92 110
-2.88186 4.42415 1.54986 122 122 124
-2.4065 4.88292 1.58108 151 158 158
-3.06529 3.79872 1.53211 116 119 126
-3.1327 0.597195 1.53087 168 173 187
-2.85789 3.79739 1.6194 49 49 55
-2.60896 3.94833 1.58863 79 79 91
9.25197 -4.63161 -9.0063 110 114 122
8.87642 -10.9841 -10.0114 65 57 76
11.0293 10.7073 -8.19134 219 219 237
9.60378 -10.4089 -8.9664 59 51 65
9.57215 -9.74465 -8.30182 159 183 200
10.6819 10.7123 -7.16001 149 155 160
16.3642 10.8768 -9.58704 135 140 146
13.133 10.6065 -8.06024 217 217 235
8.98572 -10.8604 -8.02392 147 145 159
19.4328 10.8267 -10.5875 50 51 56
3.8093 -8.83314 -5.79213 98 128 209
10.0487 10.6278 -6.33906 96 50 79
10.0093 10.5846 -5.91483 218 217 227
9.60848 -6.74884 -5.94786 161 162 181
7.86732 24.7353 -10.5218 202 233 213
4.49927 -10.6453 -5.95996 66 57 78
9.97188 10.4765 -5.45 82 82 85
9.0883 -9.41735 -6.24072 58 61 72
9.13636 20.4139 -7.62497 143 150 162
-9.06628 -5.6453 -4.43416 81 102 179
-16.2502 -6.05125 -6.64295 98 133 232
8.68781 27.8594 -9.60087 63 62 75
-30.267 10.5388 -11.174 148 143 136
10.2668 26.7341 -8.73085 84 82 87
-12.3053 11.9292 -5.12853 56 29 31
-6.3014 -11.6559 -4.89207 63 54 107
8.55012 -27.7443 -10.0422 117 114 132
-11.651 10.5119 -4.4349 79 74 83
11.0538 10.3271 -4.18975 94 45 80
-12.1241 10.3828 -4.51292 226 227 228
-15.4032 -6.19006 -5.25809 49 50 70
9.73595 -19.9258 -7.18451 68 61 69
9.31549 -7.74559 -4.00537 65 68 86
9.07866 18.7132 -5.31361 134 144 159
-34.5414 10.6087 -10.1984 68 62 61
13.505 10.3578 -4.20143 89 53 87
-12.0452 10.3352 -3.90077 237 241 250
8.81725 25.8311 -6.58095 194 181 175
8.33109 26.2938 -6.38137 65 63 77
8.7034 -19.1712 -5.76404 61 51 67
-12.0985 10.2967 -3.49876 226 222 232
9.09083 20.6256 -4.84476 67 65 74
-11.6195 10.3744 -3.20224 72 62 62
9.29391 21.5384 -4.14554 197 201 208
-20.6885 -2.05368 -4.09108 66 83 126
10.3099 25.2089 -4.56607 74 64 80
8.42169 27.6306 -4.6107 210 208 205
8.85336 28.4501 -4.29866 211 208 206
17.6128 9.94926 -2.93944 82 85 85
8.82524 27.4246 -3.60967 153 152 150
9.03217 -3.3996 -1.37248 131 131 146
10.5445 10.39 -1.63236 102 46 65
8.89892 28.5406 -3.09979 208 207 204
9.16069 -14.5501 -2.09203 152 151 153
8.85271 -9.04202 -1.16384 139 0 103
10.176 -20.3752 -2.06065 49 39 46
10.7171 -20.5012 -1.96829 42 32 43
9.26333 -8.03187 -0.732104 109 127 182
8.60173 16.3332 0.15009 57 55 63
15.7869 6.21385 0.292409 24 24 36
-12.3136 10.0379 0.241182 49 63 53
9.26019 -7.18058 0.396096 158 182 195
5.69034 15.6837 0.661148 69 63 81
9.14138 -13.5765 0.806062 58 50 63
-9.18732 9.99579 0.649625 47 43 50
-11.4131 10.0466 0.837367 57 55 48
-10.7893 10.2142 0.885817 64 63 60
9.12796 -8.83143 0.915776 71 60 75
-11.1443 10.123 1.04318 155 176 190
5.69649 13.5332 1.06672 216 237 232
-6.09175 6.77656 0.620663 157 169 182
11.1624 -6.15255 1.12635 39 37 47
12.2982 9.84817 1.36827 191 214 220
-7.33674 10.123 1.04739 232 245 254
-6.94332 -5.58062 0.929502 66 66 85
-4.12288 12.8725 1.17805 38 37 49
-13.3241 -1.46943 1.28952 53 54 67
-13.1372 -1.78098 1.357 123 121 132
-7.07723 12.7632 1.48425 36 33 41
-3.23683 -6.21566 0.924769 171 168 176
12.0292 9.90248 1.71989 94 98 101
-3.8723 12.2576 1.4027 121 122 130
-6.6729 9.99038 1.29629 221 231 254
-4.38493 12.4799 1.71436 110 107 119
-3.35583 10.9757 1.66013 153 154 159
-7.28933 7.93821 1.58902 135 139 151
6.21162 -1.54375 1.45592 141 140 149
-2.47483 -3.62272 1.28429 176 175 177
7.42 6.34989 1.88646 109 98 97
-3.54659 7.01706 1.54183 155 157 161
-5.25066 -0.663904 1.43619 109 112 117
-3.62468 5.8366 1.39337 68 75 89
-2.30147 -3.14229 1.45689 60 59 80
-2.80031 7.28485 1.65049 67 66 78
-4.10901 4.94337 1.53142 71 71 88
-1.7757 -1.9821 1.41082 56 53 75
-1.82722 6.39661 1.62286 52 52 74
-2.66124 -1.29759 1.43466 159 158 172
2.17134 -1.4658 1.45315 107 107 123
-3.66698 4.1666 1.52538 108 113 119
-2.58101 5.23391 1.60664 159 158 151
3.51096 4.43862 1.70537 101 98 105
-3.29035 0.199538 1.52492 100 102 115
-2.94256 0.436182 1.5321 71 62 88
9.42203 -4.7364 -7.65161 55 60 75
-11.4108 10.8556 -9.28041 79 67 64
9.03146 -11.111 -9.43629 50 40 68
9.80999 -8.4139 -8.27975 50 43 61
9.48808 -10.1726 -8.7531 48 44 65
13.0451 10.9579 -8.57693 195 204 201
-3.73858 -6.529 -4.64356 138 175 248
10.3153 10.7285 -6.52848 96 45 77
9.15323 10.5802 -5.85499 218 219 232
9.50832 20.7004 -9.45462 42 45 58
8.91998 -4.43594 -5.00232 60 63 96
9.36137 -11.3632 -6.86143 147 148 157
9.37707 23.7587 -9.30844 75 66 63
-10.2346 -6.71836 -5.45501 110 149 247
12.9254 10.323 -5.60564 205 210 227
-16.9015 -3.25352 -6.49738 37 39 55
-2.89786 -10.0446 -4.21569 165 190 233
9.11527 17.8293 -6.11387 69 56 79
16.5886 10.3752 -5.74512 208 209 227
10.21 -20.5251 -7.26004 61 52 58
9.10981 -7.11476 -3.56512 135 129 139
7.46511 24.383 -5.97686 66 65 72
9.42366 -5.08399 -2.9688 54 50 61
10.192 10.4243 -3.15316 113 114 110
12.8852 10.1788 -3.32066 203 208 219
9.9776 21.249 -4.74968 212 226 228
-11.4708 10.387 -3.12602 67 57 54
12.4989 10.5021 -3.10946 76 77 82
9.41039 -14.9683 -4.16051 143 148 140
9.22733 17.8964 -3.70021 76 48 62
10.204 9.98378 -2.40094 142 154 161
10.8502 10.2615 -2.17687 162 182 179
6.23445 10.6432 -1.54059 92 93 97
18.3157 10.1904 -2.89607 88 88 86
14.1811 10.2981 -2.25764 174 186 196
9.25447 17.7605 -1.35917 75 48 63
9.97159 10.1267 -0.601131 232 233 226
9.47164 -8.80755 -0.623329 45 44 54
9.03859 -6.4881 -0.498627 61 68 75
16.3423 8.23372 -0.161681 30 29 39
8.89925 15.1254 0.644455 134 135 143
-11.5699 10.208 0.719055 48 47 48
5.56055 -9.1405 0.699728 71 64 76
-11.6702 -4.77962 0.96739 27 26 34
12.3968 10.0562 1.29448 195 218 225
-6.94967 -5.60234 0.906646 68 65 87
10.4348 14.3699 1.73975 98 113 102
-6.5498 17.0141 1.65625 35 33 37
-6.09372 10.8489 1.17016 52 56 62
-6.2617 10.1993 1.15446 230 241 254
-6.11801 15.0275 1.84872 157 163 163
17.7105 7.39499 2.42881 27 25 33
8.85382 15.2108 2.17256 180 182 183
-3.57796 -6.10954 1.13213 154 151 161
-6.01416 -5.15564 1.22314 85 86 88
-7.34962 7.91715 1.58593 135 138 146
7.23695 -2.07297 1.41882 80 69 74
-3.51102 8.69468 1.37501 153 155 163
6.7852 -1.0099 1.52478 89 90 104
4.14103 -3.47056 1.40137 60 48 76
4.7273 -2.53458 1.46604 73 40 88
-3.50535 -2.23941 1.36489 166 175 187
-2.73174 3.70887 1.55567 46 45 54
9.25178 10.8753 -9.93115 209 210 215
9.54975 -4.74782 -7.82515 47 55 78
8.55176 -11.8617 -10.3889 75 70 79
14.9496 10.5898 -10.1291 64 64 72
9.49631 -6.94696 -6.20243 58 60 84
9.29124 -4.76659 -5.27508 60 59 91
-10.536 -7.06842 -6.31337 49 49 82
19.5537 10.598 -8.41609 159 164 176
7.89074 24.56 -6.82628 78 73 76
-9.0355 10.0253 -2.90425 78 65 60
9.38112 -8.23745 -3.28473 53 53 67
7.78012 28.5154 -5.58548 56 57 68
8.71786 -3.25364 -0.707685 125 125 140
5.82063 -16.6265 -1.38117 44 36 48
-9.35656 10.0403 -0.243031 49 45 51
-11.4228 10.3502 -0.283409 50 51 54
-11.5042 10.3087 0.645254 64 72 54
-9.33949 9.92844 0.635635 64 73 59
11.1723 9.72006 1.14909 199 222 223
7.5952 -10.8714 1.14784 116 106 129
-13.5242 -3.48347 1.22506 167 145 125
8.43154 -1.41925 1.34943 138 133 147
9.89869 -2.28747 2.12414 76 76 90
11.9475 10.6973 -10.4112 62 60 66
9.50429 10.8 -7.94311 215 215 224
14.6805 10.6234 -9.29511 72 72 82
8.74132 -5.3244 -6.27852 141 138 152
-16.305 -4.32819 -8.47112 46 50 56
11.2408 8.27606 -5.42645 105 112 147
9.78536 -4.72309 -4.6344 129 131 147
7.82242 -18.0019 -7.47135 126 117 136
-12.6055 10.3842 -4.75145 216 212 213
9.17751 -9.39459 -4.55679 129 125 134
15.9504 10.9892 -4.89275 82 84 88
9.26959 10.2389 -2.30499 204 195 194
9.21341 20.9023 -3.57575 70 50 67
11.0353 10.3957 -0.953635 197 201 213
9.05584 -6.66359 -1.00736 188 196 221
9.45682 10.2191 -0.752534 205 206 215
9.91834 20.3171 -1.38195 76 53 67
10.1241 22.5465 -1.33439 76 53 67
9.66491 -10.817 -0.580407 113 124 135
9.5606 -3.10629 0.864907 29 23 34
-9.34683 8.91824 1.22682 165 169 180
-2.80152 1.11598 0.37552 118 120 128
8.8195 -3.5315 1.28906 110 108 113
-2.77397 4.31203 1.55304 48 45 55
10.8652 7.61253 0.113307 53 56 74
8.08513 -10.9023 -8.85756 75 80 82
9.16121 -4.55638 -5.55136 60 64 93
9.11705 -4.6091 -3.26838 79 73 115
9.00386 -21.0099 -2.81037 116 112 123
8.027 -4.56452 -0.961849 62 71 77
5.6624 -9.73184 0.901312 53 46 54
-2.71371 -1.21309 1.32599 124 124 135
-3.47454 4.67444 -2.57992 192 157 114
-3.4583 3.93553 -2.5451 164 183 203
-4.47836 5.89993 -3.67552 194 213 204
-7.91488 5.18239 -4.71164 201 176 142
9.4754 -10.3511 -7.37513 169 164 179
9.03798 -3.90494 -4.8053 78 66 86
-15.0846 10.591 -5.65405 90 59 53
3.19201 -4.95296 -2.49811 112 120 124
4.02645 17.4435 -3.91963 187 198 174
13.5791 9.48656 -3.57242 96 61 85
7.15661 30.028 -6.95754 190 199 176
20.3065 10.3336 -4.27703 89 69 95
15.8645 7.98567 -3.3617 91 71 97
8.94172 31.0337 -5.0969 212 221 226
9.11318 -10.5266 -3.02043 72 60 83
8.54999 29.2166 -3.97293 84 67 92
17.5052 11.6277 -2.39249 94 49 67
9.13459 -3.68719 -1.0501 31 24 35
20.4433 8.76432 -1.39104 92 46 69
39.1377 10.0095 -1.63836 100 83 94
10.9627 8.86835 -0.0714304 57 55 59
-2.26685 0.742889 -0.0129156 95 93 98
-2.66482 -2.29817 1.35313 54 48 70
0.11029 0.111931 -2.60271 65 54 124
-2.261 -5.80041 -7.44584 255 255 255
-4.6263 6.328 -4.53152 222 241 248
-2.50305 -3.00732 -4.00338 226 148 251
-4.97274 6.743 -4.02061 75 71 86
8.95015 -13.3804 -8.72761 132 132 139
4.83024 -4.26003 -2.83137 166 163 177
8.58617 6.86111 -3.68018 219 222 238
-15.5164 10.5375 -6.55692 65 55 55
-19.0993 10.6134 -7.83988 100 75 63
8.93035 17.3561 -5.83775 71 58 81
-12.1306 10.4129 -4.00369 234 240 250
4.92524 -7.2273 -3.35016 60 54 76
9.46986 -8.3533 -4.10185 55 50 69
8.83775 -19.4813 -5.8987 59 53 67
9.58441 -15.4472 -3.71885 50 40 62
46.8719 11.0965 -6.49263 178 192 231
20.9383 10.2664 -2.30695 151 164 168
0.871982 2.03977 0.0730365 92 50 70
9.12835 -3.70713 -1.11282 31 27 33
42.2143 10.1065 -2.82287 160 162 177
9.38613 -23.336 -2.05442 58 45 68
-7.624 9.81518 -0.240309 34 27 37
-7.40337 9.95986 0.807769 40 41 46
-16.6072 -4.31342 1.88834 154 140 131
-3.35415 -1.12706 1.4558 103 108 113
3.07866 4.9683 1.75256 96 92 104
-5.95712 -19.8726 -21.5935 205 129 246
-11.5241 10.8953 -10.0564 64 55 50
9.30923 -8.08504 -10.0074 52 49 68
-11.4951 10.8181 -9.21457 84 71 70
-3.27587 -5.58813 -7.68588 203 139 239
-4.39418 -8.25645 -6.71234 125 131 172
9.60154 -12.04 -9.86251 50 46 63
-11.5862 10.5295 -5.49823 76 63 57
-24.3863 9.59018 -9.92518 187 170 140
9.53538 -22.5581 -9.34562 128 121 137
8.97964 -14.0066 -6.01538 157 159 164
9.41603 -6.96062 -3.96701 60 62 82
8.68033 -13.5337 -4.08022 157 159 159
4.68084 -2.71773 -1.74325 110 111 130
13.4489 6.22305 -1.80474 169 176 183
9.11602 -3.78611 -1.10794 34 28 34
8.17615 26.3689 -1.30783 204 203 204
33.0575 10.3728 -1.81056 88 77 109
-15.7593 -2.82002 -0.454262 66 68 83
-32.5917 7.72188 0.159194 39 37 39
3.273 11.9524 1.67067 138 136 152
3.37273 11.6748 1.74874 205 213 231
3.25911 11.8008 1.90851 128 127 142
-5.55999 0.274557 1.45798 94 93 109
-2.33624 8.1874 1.62389 52 51 60
-2.02607 7.40352 1.59178 180 188 181
-3.83483 -0.0414767 -3.57719 45 41 71
-10.1935 10.997 -8.67167 183 151 123
-3.43898 -7.17071 -5.26991 111 118 178
-15.8152 -4.1393 -8.51633 44 47 58
7.1174 -18.2734 -7.10089 119 114 129
9.14577 -7.28064 -4.17698 164 160 175
36.8949 10.9154 -7.40624 102 109 117
5.27721 4.16138 -1.13682 206 209 221
8.97728 -3.79798 -1.20567 42 36 40
8.8694 -3.82264 0.864055 34 30 37
4.90548 -6.6532 1.35151 128 122 134
5.62794 -1.25294 1.47074 57 42 70
-2.65937 -2.95367 -2.85333 77 77 106
-4.51695 5.64228 -1.73535 50 29 35
9.22653 -10.3518 -0.684779 120 128 138
8.66713 -6.36104 -0.0498651 66 73 77
9.26924 -5.65066 0.00448324 33 28 34
-8.25428 10.8824 0.789213 35 34 40
9.26587 9.9393 1.16268 205 205 211
-12.0034 -1.94288 1.93825 126 126 137
-9.86154 -26.8506 -29.3877 255 255 255
