9.62348 -12.273 -6.9215 65 65 79
9.82179 -8.77694 -5.83701 61 63 78
-9.15413 10.605 -5.53365 83 73 73
-17.6468 -3.6946 -7.66443 40 41 54
20.1048 11.2993 -9.30951 82 60 101
9.73782 19.7915 -8.61819 166 165 166
15.007 11.1224 -7.37513 146 151 150
10.3107 -15.6515 -8.08994 132 131 141
13.3357 11.2036 -6.74039 92 51 85
11.6025 11.035 -6.15268 217 215 230
9.60982 -6.59561 -4.97714 166 160 176
18.5403 11.0821 -8.42323 212 215 229
23.6601 11.184 -10.235 122 128 136
-16.2473 -5.78921 -6.96547 93 127 220
9.87006 -10.309 -5.90404 194 200 216
9.93239 19.5726 -8.1558 62 63 77
20.8375 11.4507 -8.99281 194 199 205
9.36874 19.5131 -7.98327 134 144 159
9.48597 -4.20932 -4.19644 161 158 173
26.8555 11.2007 -10.9849 54 54 59
14.3286 11.1224 -6.70149 92 52 87
9.95182 -15.6902 -7.56388 66 59 79
17.1751 11.2531 -7.60049 137 147 153
12.5944 11.068 -6.08653 220 219 232
9.899 -10.8552 -5.95547 58 59 83
13.5927 11.1892 -6.36606 215 217 224
11.6026 10.9054 -5.68872 76 77 81
9.76816 -8.50089 -5.14761 159 153 172
9.70313 -5.08024 -4.32296 162 159 170
23.2479 11.3183 -9.36729 83 63 104
-23.0808 10.7859 -9.28795 75 55 44
21.7087 11.3503 -8.80092 220 223 240
20.6281 11.4881 -8.38845 86 88 91
15.2584 10.959 -6.60625 85 55 91
-22.1162 11.0292 -8.90004 193 164 137
18.3057 11.1485 -7.54643 136 143 150
12.1105 10.8312 -5.56122 76 75 78
14.7354 11.179 -6.36023 218 222 235
-27.55 10.8685 -10.4975 63 57 55
9.55163 -6.55303 -4.37602 162 158 170
9.56953 -4.29993 -3.92109 62 59 71
-24.4116 10.8864 -9.25189 94 67 54
9.54388 19.2477 -7.21348 228 246 250
16.8586 11.2384 -6.81387 89 52 87
9.6489 -5.26018 -4.02208 62 59 65
9.80495 -4.78754 -3.99119 60 59 78
-17.0426 -2.91087 -6.13633 81 119 215
-15.8344 -5.87192 -6.06437 46 42 66
9.98992 -11.0157 -5.43437 161 159 170
14.7897 10.8214 -5.94986 209 207 219
10.115 -13.0826 -5.92384 60 52 70
-9.26793 10.6487 -4.46979 56 47 46
11.616 10.8761 -5.01718 79 79 88
9.81556 -8.67692 -4.60794 157 151 168
18.0214 11.1863 -6.7837 90 56 98
9.61308 -6.64812 -4.08722 59 59 70
17.2139 11.2278 -6.40558 204 206 213
9.56961 18.8353 -6.4772 67 54 81
-16.6797 -3.00942 -5.56849 42 41 55
9.92285 -11.2909 -5.13601 108 113 116
9.76829 -7.24853 -4.16361 57 55 71
16.3704 10.8818 -3.65889 203 206 218
13.3786 11.2046 -5.25571 77 78 84
11.3852 10.9041 -4.68689 132 150 156
10.2981 10.7465 -4.36575 94 46 77
18.4194 11.2613 -6.418 211 215 230
-22.4457 10.4496 -7.4889 96 86 88
9.94136 -11.044 -4.8171 161 156 172
10.9448 10.9406 -4.49507 95 48 74
9.72569 -8.77888 -4.25791 67 65 68
17.1156 10.7897 -5.93443 200 199 216
9.81927 -7.76285 -4.0138 133 130 135
10.1713 -15.7857 -5.88026 126 131 140
16.8123 11.1702 -5.80718 78 81 83
9.39882 17.752 -5.66236 173 187 186
-30.2471 11.0124 -9.44998 65 59 58
13.5354 10.9904 -4.90774 139 147 152
9.74657 20.6196 -6.35647 67 55 83
-25.2678 11.0886 -7.97691 74 67 69
18.4262 10.8451 -5.95692 207 207 222
9.67642 19.5021 -5.97747 161 160 168
10.9862 10.9881 -4.18105 96 45 75
9.10492 10.9572 -3.79569 149 145 149
9.86226 -10.5339 -4.3955 65 63 86
27.2362 11.3074 -8.20604 91 92 101
15.1403 10.7645 -5.02261 77 79 88
9.83127 -11.1281 -4.43569 70 66 71
14.675 10.9657 -4.91861 139 144 150
11.6345 10.8252 -4.10462 97 42 75
10.0954 -16.1195 -5.50573 48 46 65
9.50185 18.5819 -5.3454 64 64 66
9.71695 22.1722 -6.26848 70 58 89
9.53021 19.6358 -5.56686 135 147 165
9.34293 10.8604 -3.56788 236 231 233
18.5361 10.6183 -5.46897 75 74 79
11.2821 10.921 -3.9065 163 167 174
10.4653 10.8836 -3.72785 211 210 221
12.0551 10.8341 -3.99655 98 51 81
9.75587 -15.5173 -5.01922 67 56 80
-17.9897 -2.85364 -4.85239 93 136 229
13.3114 11.0054 -4.19966 100 44 72
10.9775 10.9467 -3.7369 211 215 224
-37.9076 10.4979 -9.97946 71 68 75
17.3353 11.1091 -4.99883 140 142 148
9.8644 -4.89934 -2.88306 94 88 112
9.58566 21.2591 -5.50391 143 153 167
9.97055 -7.96306 -3.34441 134 127 145
11.6365 10.8636 -3.70163 211 212 218
9.88854 -12.9378 -4.14743 71 66 86
27.0749 11.1515 -6.85055 80 69 110
12.4665 10.8795 -3.73515 222 225 231
10.3706 10.7292 -3.31222 81 79 83
-28.9775 10.3633 -7.18778 55 44 38
-37.837 10.7103 -9.27334 60 55 54
9.77121 -7.28234 -3.02459 102 97 117
-32.7896 10.7281 -8.05057 190 153 129
15.2139 10.7495 -4.11977 88 52 89
11.008 10.9902 -3.40008 100 96 93
13.2041 10.9546 -3.74179 218 217 234
9.51041 -4.36061 -2.51575 165 163 173
9.6789 19.4923 -4.57257 193 201 199
16.8919 11.0864 -4.26788 86 56 97
11.5636 10.7109 -3.28321 76 77 78
20.8525 11.0046 -4.98731 139 145 154
14.0069 10.7911 -3.68451 208 206 215
9.52855 -4.12156 -2.34328 116 112 123
9.58546 -6.73741 -2.68318 164 164 173
9.59275 -5.41911 -2.42063 77 75 90
9.8967 21.242 -4.61351 229 240 247
9.55562 -12.4678 -3.39233 71 59 82
9.84436 -8.75714 -2.88012 160 154 168
14.7647 10.6816 -3.53765 206 206 217
9.38226 -3.50274 -2.07122 152 150 161
18.5029 10.4961 -4.07166 85 61 97
17.3349 11.1001 -3.91395 208 210 217
20.7532 11.2932 -4.42235 83 61 101
16.0552 10.8792 -3.60399 213 211 220
10.1394 -11.2894 -3.08348 157 155 167
9.69004 -10.4284 -2.93096 160 157 169
9.575 18.611 -3.77406 74 46 63
-16.7367 -6.68582 -3.53145 35 36 40
9.37548 -3.22453 -1.94884 80 79 99
-32.3144 10.8794 -6.42816 182 165 142
-18.4018 -2.79826 -3.40966 35 40 47
18.1962 10.5799 -3.49943 203 204 214
11.5929 10.6831 -2.55431 77 76 85
9.21994 -3.4084 -1.75386 133 131 148
23.3295 10.9251 -4.28652 82 67 112
21.0232 11.1542 -3.95528 199 202 208
9.37231 17.4936 -3.15213 174 180 178
11.1866 10.8185 -2.45267 142 146 152
13.2352 10.9366 -2.65005 76 76 82
9.64859 19.2941 -3.35153 155 152 155
-29.7327 10.4675 -5.19375 64 53 49
9.80804 22.207 -3.72109 69 48 63
20.7472 10.69 -3.53129 203 208 218
9.40007 -3.28407 -1.63064 69 59 67
14.1195 10.7441 -2.60812 79 79 85
11.325 10.7002 -2.25832 177 189 191
9.89134 -12.505 -2.55304 123 121 131
26.9857 10.9183 -4.29512 84 74 115
9.69645 -9.45652 -2.18621 141 141 153
21.5822 10.4534 -3.44264 203 203 213
13.5691 10.8289 -2.43304 141 145 150
15.0055 10.5161 -2.55927 75 75 82
10.269 10.5631 -2.00328 97 40 64
9.62744 18.6122 -2.88606 65 60 74
9.38749 -15.1513 -2.76797 56 56 64
10.9687 10.8088 -2.08946 100 38 60
16.9764 11.0992 -2.7737 80 82 88
9.62101 -6.07328 -1.71421 62 58 62
14.6774 10.7709 -2.42544 138 142 150
10.2509 -6.20924 -1.74044 40 33 37
13.6578 10.6854 -2.2483 173 186 184
9.38521 -6.5148 -1.66947 44 42 50
11.5672 10.6232 -2.00191 96 41 64
9.74398 22.6312 -3.12638 175 182 179
9.64916 -9.78583 -1.96905 44 37 50
9.8138 -9.20952 -1.94046 44 36 51
9.69721 20.2409 -2.7442 62 61 70
22.9485 10.7202 -3.18728 99 104 103
14.7952 10.6442 -2.24718 167 179 181
13.306 10.8448 -2.0572 97 43 65
9.70995 19.2838 -2.58643 177 186 181
10.0871 -12.4421 -2.19398 43 34 50
17.2073 10.8604 -2.43472 139 144 149
10.3308 10.5921 -1.64546 100 45 67
-14.8756 -4.72816 -1.95045 56 57 53
11.5726 10.5986 -1.65658 100 39 60
9.27652 10.7149 -1.49637 212 205 207
27.0729 10.8856 -3.17291 82 84 90
9.97834 10.7241 -1.50287 200 194 189
9.47958 -19.1134 -2.52809 121 121 131
13.3388 10.8561 -1.72376 98 44 64
9.76887 -8.80764 -1.47666 185 193 218
9.38776 -6.55006 -1.28769 182 190 215
11.2857 10.728 -1.48683 172 177 180
9.95676 -8.24287 -1.42238 190 201 222
9.86251 -7.82687 -1.3431 192 198 223
15.1177 10.5129 -1.68711 94 41 64
-8.7618 10.2803 -1.20794 218 231 241
9.77678 -12.6308 -1.64813 110 108 118
16.8735 10.9166 -1.77655 93 43 67
8.97279 10.7235 -1.20155 83 80 92
-15.7497 -2.70879 -1.5317 61 63 77
9.79936 -8.46041 -1.24135 49 42 63
9.37431 10.7151 -1.05792 200 204 215
9.95081 -11.2023 -1.31437 114 5 88
9.86143 -13.1967 -1.41718 39 24 45
9.98441 -8.03321 -1.07188 191 197 222
-8.5039 10.2489 -0.954951 73 75 75
16.3242 10.7937 -1.29546 166 168 178
26.4986 10.5562 -1.78853 90 42 66
-8.81059 10.3156 -0.791796 236 245 253
-9.40787 10.2623 -0.814387 235 237 246
9.82506 -10.5295 -0.993796 122 96 130
10.4067 -20.576 -1.43302 135 141 141
9.60519 21.5841 -1.09017 75 55 72
10.008 -9.38375 -0.754112 46 42 57
9.6999 19.3834 -0.968642 155 156 149
9.83314 -7.16832 -0.640755 66 66 73
17.1915 10.6794 -0.889296 206 209 218
10.2541 10.5557 -0.60709 231 233 227
18.3485 10.6641 -0.816885 191 194 204
10.4022 -22.6 -1.15725 47 44 59
9.93144 -11.7402 -0.689777 124 137 145
9.7161 -10.2085 -0.630335 131 140 151
27.9472 10.5173 -1.01399 177 182 188
20.549 10.416 -0.805398 197 199 208
12.7808 10.2535 -0.453157 216 220 219
10.0909 20.8185 -0.62639 73 70 82
-9.42706 10.2658 -0.367635 60 64 56
18.8862 10.4429 -0.493835 38 35 37
10.5148 26.6141 -0.690024 182 182 195
9.46279 -3.68928 -0.219626 129 129 142
-12.6283 10.2085 -0.330458 57 57 61
20.9953 10.4691 -0.353415 36 34 39
10.2032 10.5952 -0.134999 71 69 70
11.1052 10.906 -0.123014 65 62 65
10.1194 7.59923 -0.0826565 43 42 50
9.85543 -12.8134 -0.16185 111 112 118
9.7601 17.5321 0.00226595 131 136 151
8.9974 11.7263 0.0276526 76 81 88
9.96522 -11.865 -0.0172041 116 126 134
9.14055 17.2774 0.162174 57 53 60
9.7752 -13.1982 0.0555032 45 31 52
9.84537 -12.2773 0.0612447 70 4 63
12.9653 10.1684 0.154507 197 204 214
11.6213 10.4359 0.167547 210 216 223
9.72039 -10.3492 0.170006 127 135 149
11.0827 10.7118 0.220261 210 214 219
9.98516 -9.45872 0.132958 48 42 55
9.00681 12.365 0.285379 111 130 119
9.84987 14.4416 0.442188 121 140 128
9.7542 -8.56489 0.35457 172 187 191
10.1111 10.4764 0.428582 71 72 87
4.45448 -9.72943 0.314897 38 39 57
9.8035 -12.8449 0.478274 101 97 105
11.2546 10.4637 0.477279 72 78 89
8.84752 14.9181 0.525857 124 127 134
9.53104 17.3116 0.676649 141 142 149
16.7543 6.34462 0.688612 67 75 101
6.45453 14.3013 0.630933 230 243 253
11.5506 10.3792 0.668865 185 210 215
10.9301 10.4814 0.67943 202 224 227
10.3679 10.4601 0.659987 201 225 228
-8.61786 10.201 0.563637 69 71 80
9.76583 -10.7087 0.663962 141 139 148
9.29328 14.1261 0.820787 119 136 127
9.71169 -13.3386 0.805116 52 46 55
14.6111 10.2872 0.918683 46 50 57
9.6135 -9.75998 0.679896 141 141 150
9.77818 -7.51889 0.679565 85 83 92
9.7779 -9.08486 0.748168 141 141 151
9.69867 -8.33461 0.787429 140 134 146
27.4006 6.12826 1.77497 144 147 161
-8.49294 10.2691 0.766035 53 53 63
5.70156 -9.36796 0.741789 72 66 74
9.75898 -7.79496 0.826624 142 140 151
9.79551 -7.16387 0.875356 139 137 146
9.09532 -6.26445 0.810572 128 130 140
9.33276 14.7304 1.26252 53 51 64
5.04637 -9.85658 0.868098 33 23 41
9.50736 17.3021 1.47555 156 162 164
6.19904 16.9809 1.36665 74 71 82
6.54877 14.2599 1.20302 197 201 238
5.2868 13.4658 1.11536 92 93 105
-14.4934 -3.20384 1.18115 40 36 43
9.70661 -7.40091 1.03543 101 88 107
9.68771 -6.36325 0.981333 60 56 70
24.8179 6.20996 2.15063 23 28 36
16.0024 6.86495 1.54491 93 98 109
10.9174 10.4053 1.32699 199 220 219
-7.81475 -4.01746 0.805931 63 60 67
16.6959 7.9706 1.69941 103 89 110
-13.7322 -3.58413 1.2765 169 149 130
11.524 10.3038 1.43121 195 217 221
9.49364 -3.75766 1.02793 125 124 137
9.04103 12.663 1.47397 50 50 61
10.0021 -3.45324 1.05815 35 35 48
14.8304 10.3657 1.76821 52 53 63
9.11477 11.9215 1.20513 47 48 58
-8.83285 9.1876 1.2357 84 79 90
-9.00838 10.047 1.31685 62 60 64
4.74273 -9.69526 1.19355 35 27 38
-7.05104 -5.61207 1.02282 59 59 79
11.2558 10.355 1.61835 63 64 73
9.33702 13.826 1.78739 106 125 119
9.32663 10.4593 1.53667 199 201 210
9.18604 12.4162 1.70858 116 132 120
4.32991 -9.25419 1.23568 36 29 39
9.07871 -4.77904 1.18676 136 128 145
10.7074 10.3735 1.66016 60 73 74
9.5419 -4.54496 1.26262 124 122 133
14.6399 10.5441 2.09847 170 173 181
10.1199 10.3811 1.67909 72 72 78
-8.86334 10.2757 1.53271 39 36 48
-3.51119 8.66925 1.07362 159 161 166
-8.86124 9.14412 1.49398 55 53 63
14.9824 10.2642 2.28483 45 45 56
8.77958 15.461 2.19844 178 179 182
-7.79757 10.0798 1.53695 46 49 62
5.93716 14.1483 1.94187 79 76 102
11.2036 10.3841 1.99281 185 184 190
10.5524 10.4917 1.97742 183 183 190
-5.77699 10.0909 1.52305 58 59 67
5.2022 -7.09671 1.36524 126 124 128
-7.34391 9.18941 1.62954 130 136 144
8.95392 10.45 2.01735 105 101 107
-8.31127 -2.19114 1.31521 115 115 123
8.81302 -1.48308 1.4224 143 143 155
7.62573 -3.68851 1.40775 82 80 99
-3.5216 -5.14621 1.13259 48 36 63
-4.03129 8.70784 1.4272 164 165 173
8.54664 -1.15279 1.4786 82 76 81
-2.66424 -6.02771 1.25814 137 133 150
6.80898 -3.58236 1.37572 79 80 95
5.8567 -3.65579 1.40676 142 139 152
-3.47218 9.19672 1.70795 51 47 71
-2.86419 -4.86169 1.23814 58 53 75
3.95795 9.9617 1.92691 131 119 129
-3.00866 -4.79594 1.25444 55 55 77
-2.29926 -5.18368 1.30633 58 57 70
7.20209 -1.14924 1.54422 74 71 92
4.75891 -3.99281 1.40043 132 125 138
-2.36672 8.31343 1.64253 54 51 67
6.50525 -2.12865 1.56853 144 140 146
6.90873 -1.26457 1.56736 134 133 143
4.8132 -3.5363 1.47153 127 127 136
-2.04916 7.59765 1.60784 176 176 176
-3.53461 6.92276 1.67781 89 89 101
-4.37667 5.79674 1.58793 87 82 91
-2.4957 -4.03355 1.36546 73 58 79
-2.40161 -4.09815 1.41789 164 164 169
5.24481 -2.3943 1.58089 82 63 94
-3.38724 -3.07997 1.38286 129 125 132
-5.56058 2.80283 1.53966 136 139 151
-1.66491 -3.79753 1.38001 66 61 88
-2.87468 -2.90862 1.34744 51 45 59
-4.05909 4.75178 1.56281 131 130 139
-3.57862 -2.27888 1.38526 168 182 185
-2.58667 -3.22668 1.41106 106 110 137
-3.06816 5.53851 1.59772 128 129 141
-2.95906 -1.98054 1.40735 136 136 145
-3.1392 3.91014 1.5798 118 125 130
-2.99833 3.96863 1.58576 123 125 127
-2.88365 4.01868 1.59791 53 50 60
-3.0053 3.23101 1.55736 122 123 126
-2.87816 3.62781 1.62798 51 49 59
-2.74007 3.41838 1.62659 142 147 152
-2.75738 3.10426 1.63449 126 130 133
-2.76163 2.95238 1.59808 42 46 60
-2.2645 -1.08885 1.4975 145 144 155
9.41617 -2.68321 -10.2033 42 38 60
9.44445 -3.83966 -9.87939 54 56 85
9.22903 -2.84856 -9.21369 136 137 148
8.6167 10.8376 -11.5147 106 104 111
9.19948 -4.96445 -9.36804 136 134 147
9.85888 -5.88101 -10.2087 134 132 149
9.34728 11.5278 -11.5471 58 55 64
9.88795 -13.0429 -13.3296 83 75 84
9.35154 11.384 -10.5386 202 203 209
9.77418 -4.90458 -8.66208 66 71 88
10.7595 11.38 -10.9351 67 67 76
9.8848 11.3598 -10.5256 205 198 201
9.81395 -10.525 -10.8385 53 54 72
11.9604 11.3653 -11.0079 60 57 64
11.3515 11.2752 -10.0122 172 182 183
9.01396 -13.6741 -11.8172 223 233 245
9.48153 -13.3045 -11.7341 69 64 75
9.16547 13.1205 -9.82044 64 66 84
10.1183 -8.68265 -9.14657 58 54 70
9.91653 -4.86102 -7.45011 167 164 182
14.3425 11.2872 -11.0164 55 55 58
13.7064 11.4717 -10.7276 137 143 145
12.0192 11.3538 -9.44348 90 45 81
11.1237 11.2911 -8.83519 204 212 209
13.7239 11.2526 -9.92886 163 172 180
16.0001 10.9813 -10.6625 59 58 62
9.51187 -4.14994 -6.13317 60 62 86
11.3568 11.1057 -8.39157 210 216 228
10.6209 11.1885 -8.09367 102 113 129
9.30603 -9.95947 -7.88808 59 45 84
9.80243 -5.11939 -6.36481 52 57 69
9.74369 -7.64222 -6.82129 169 165 182
11.7617 11.0974 -7.98044 91 95 105
10.0255 -7.01574 -6.64877 59 59 68
-17.2061 -4.35989 -9.30692 47 49 62
11.1817 11.2149 -7.61955 149 153 159
15.7637 11.2484 -9.35115 86 53 90
9.85192 -7.22949 -6.49347 55 54 77
19.4632 11.181 -10.77 60 59 72
13.7132 11.0984 -8.37432 209 213 225
12.6013 11.324 -8.04445 87 92 100
9.864 -4.49531 -5.64445 157 164 189
13.1068 11.2915 -8.13018 90 92 105
12.0136 -3.02514 -6.10474 49 42 50
9.85269 -8.61113 -6.59362 55 51 69
14.965 11.086 -8.36593 215 217 234
10.0069 -6.97272 -5.90573 180 184 205
20.1122 11.129 -10.1838 132 138 141
17.1313 11.4475 -8.98023 205 216 224
-17.5436 -3.69674 -8.22285 80 113 206
11.9898 11.1567 -6.8221 91 45 81
-16.2722 -5.31966 -7.71948 56 62 86
4.71001 -12.2154 -6.18593 63 57 73
9.98666 -11.0275 -6.82287 54 52 68
9.31109 -4.15527 -4.64476 159 153 170
22.1174 11.5821 -10.5278 130 141 148
10.2099 -16.2316 -8.714 62 66 79
19.5877 11.2824 -9.36389 82 58 99
18.0456 11.3615 -8.76052 221 220 240
11.2062 11.1827 -6.39551 216 219 222
9.77041 -12.5648 -7.11318 74 72 85
16.0265 11.1773 -7.94875 86 88 97
13.1464 11.2329 -6.85247 89 48 85
-17.3825 -3.70338 -7.45411 38 36 48
10.1774 -10.6128 -6.2968 181 187 201
11.3277 10.9209 -5.95576 206 208 220
-17.5189 -3.21083 -7.28008 78 111 199
9.66095 -5.21102 -4.64057 124 128 129
10.6048 10.995 -5.6522 83 81 83
9.43843 -15.0482 -7.30531 63 57 80
13.7108 11.2964 -6.49448 198 204 203
9.89369 -10.9416 -5.95116 57 56 78
15.2817 10.7895 -6.61237 88 51 90
11.7438 10.8773 -5.54283 78 79 81
19.7078 11.1999 -7.9806 88 91 102
15.1427 11.4933 -6.59537 212 217 226
9.39174 -4.19126 -3.82745 60 61 73
13.0653 11.1193 -5.69088 75 77 83
9.67027 -15.0117 -6.49223 161 160 169
9.63109 -5.18206 -3.95239 55 55 68
-9.39328 10.6642 -4.55474 48 41 38
-15.6869 -5.80807 -5.85923 47 44 54
9.91323 -7.85612 -4.5101 163 161 174
14.7704 10.8145 -5.88383 211 212 222
11.1855 11.0071 -4.97074 141 146 152
17.3484 11.3805 -6.53661 186 196 195
-24.6121 10.5579 -8.57315 191 185 189
19.4661 11.053 -6.81428 80 58 99
-17.0902 -3.13335 -5.59293 39 35 53
-16.3599 -6.52068 -5.64554 41 40 57
15.2667 10.6648 -5.35278 75 79 86
13.6377 11.0707 -5.05126 140 145 151
9.83931 -8.826 -4.2353 69 73 78
9.66049 18.084 -5.75633 149 151 153
10.7353 10.9659 -4.25971 92 44 72
11.7935 10.8161 -4.20617 95 43 77
13.1547 11.0602 -4.33141 94 46 78
9.4623 10.8481 -3.56804 233 229 232
10.4618 -16.9514 -5.62638 58 59 75
11.5129 11.2523 -3.99545 191 187 187
19.4683 10.9372 -5.49214 73 79 90
11.2476 10.7049 -3.52851 219 227 235
-37.5219 10.536 -9.46823 61 56 54
10.5002 -9.46035 -3.61629 53 53 69
13.8071 11.1997 -3.97494 211 213 217
-32.1233 10.2809 -7.92807 195 159 135
12.5489 10.7355 -3.54981 222 221 234
9.98214 -5.25845 -2.59477 159 152 170
9.29938 -4.33153 -2.36916 159 159 171
11.692 10.6839 -3.17111 76 80 85
9.57685 -6.83158 -2.60574 164 160 173
10.2312 -8.9989 -2.91698 161 156 172
19.5012 10.8536 -4.3267 81 63 103
17.3858 11.1981 -3.98927 202 208 212
10.1815 -11.1853 -3.02831 157 157 166
9.6985 -15.7996 -3.66658 57 59 71
9.15679 -3.46223 -1.81406 134 132 146
13.1781 11.0515 -2.8409 70 76 79
14.9178 10.283 -2.95561 72 72 77
9.56224 -6.3404 -1.95943 140 138 152
9.4075 -3.2736 -1.62954 67 57 69
9.65105 -9.3903 -2.2106 141 139 154
13.6708 10.9143 -2.47658 140 146 152
9.62757 -15.7545 -2.85796 54 46 65
9.15592 -6.4303 -1.64533 43 40 50
9.69079 -8.92656 -1.89436 45 43 48
9.89064 -6.12345 -1.65038 59 58 61
10.6798 10.7543 -1.81132 98 42 65
16.7745 10.5911 -2.39988 143 148 155
9.71677 -9.98523 -1.93759 46 40 51
9.8752 -8.46005 -1.74279 80 94 87
9.80937 -3.68897 -1.36521 100 94 116
11.706 10.57 -1.78156 95 39 57
9.28537 10.7081 -1.60575 212 205 209
9.96884 -12.1323 -2.08465 50 46 56
13.1952 10.9226 -1.87491 94 38 64
9.5087 -14.9959 -2.0883 133 129 133
9.80239 -8.85357 -1.45823 183 197 218
15.0144 10.2321 -1.73403 93 37 60
9.77726 -12.6363 -1.70529 111 104 119
-15.661 -2.65001 -1.58563 60 42 54
8.93578 10.7836 -1.18779 81 78 94
9.21529 -9.56754 -1.31587 136 0 98
19.2832 10.5721 -1.79009 91 37 55
11.3134 -22.2284 -2.28205 52 46 51
10.627 -5.95487 -1.0675 93 91 97
23.9689 11.0139 -1.89252 89 42 64
-8.30269 10.1822 -0.916461 64 64 70
9.57354 -6.75228 -0.945392 185 195 220
9.42185 10.6809 -0.950076 207 208 217
-9.76388 10.4586 -0.789027 217 218 231
9.79984 -8.48309 -0.740022 119 139 172
10.6109 -20.9149 -1.25563 138 142 149
24.6999 10.7059 -1.15668 120 125 122
20.9985 10.5159 -0.973698 182 185 192
18.6695 10.9521 -0.843062 191 193 204
9.87384 -11.5857 -0.651565 131 146 155
9.05982 11.5925 -0.414847 170 173 188
19.3063 10.6257 -0.464482 35 33 38
9.40502 -20.1486 -0.77215 50 45 61
10.2966 10.5773 -0.157161 72 70 76
16.2855 6.46856 0.0506994 38 33 51
-9.00145 10.3602 0.0057896 231 238 251
9.14709 11.981 0.13153 63 63 73
9.74928 -12.1277 0.0290663 80 1 66
9.20868 17.5968 0.170482 51 48 63
12.1212 10.6982 0.207873 211 215 220
10.7576 10.5637 0.229492 208 214 219
9.85558 10.6482 0.214778 207 208 212
7.94072 12.54 0.276725 71 75 83
9.49087 17.2123 0.772111 139 144 148
9.31022 -12.9253 0.703218 52 49 59
11.6997 10.3296 0.786411 194 217 221
-8.23484 10.0329 0.666887 51 50 57
7.28175 -10.7722 0.943999 116 107 125
9.67826 -6.95871 0.899144 137 133 147
9.02542 15.3751 1.32084 137 138 144
4.71558 -10.1193 0.912528 72 65 89
11.6675 10.2712 1.32841 196 222 225
7.59534 -10.2987 1.1257 117 107 128
15.9762 6.78587 1.5248 95 97 111
16.449 7.79922 1.67703 100 86 105
-8.2147 10.3139 1.13264 219 232 254
-13.3516 -3.43911 1.25397 156 143 130
6.86338 -10.8508 1.13889 48 44 52
-7.47158 10.3409 1.16031 223 236 254
-13.3886 -1.87301 1.41397 126 126 138
-2.78047 -6.20599 0.815127 175 173 182
4.63944 -10.0004 1.28806 33 23 38
-6.90504 -4.22134 0.960106 67 68 85
10.8378 10.4168 1.69463 50 45 48
-8.95837 10.2604 1.51889 46 46 57
-7.90374 10.2501 1.49711 56 54 73
9.58806 -3.45856 1.29357 49 46 58
9.13167 11.9654 1.82953 121 126 130
-2.73096 -6.92492 1.00965 49 39 55
9.11088 10.8096 1.8925 121 123 130
-5.67047 10.023 1.48389 58 58 64
-3.49302 -5.0676 1.0901 51 47 63
-2.40953 -6.14401 1.28233 58 46 72
3.39958 -6.56037 1.43515 81 77 92
3.61917 -6.08594 1.38334 74 67 93
3.97935 9.80478 1.91162 125 112 122
-3.23477 -4.83551 1.27636 148 145 151
-2.89201 -3.66433 1.36516 61 55 60
-3.08277 -3.35178 1.32493 45 39 45
5.28404 -2.45592 1.58579 93 87 99
-3.45171 -3.08862 1.40044 126 120 126
4.14037 -2.99696 1.51351 145 145 151
-3.01532 -2.42278 1.41041 51 49 72
-2.79657 -2.79321 1.43293 164 172 161
-3.47007 4.16041 1.59905 55 58 69
-2.73757 -1.67398 1.45337 52 53 73
-2.49298 -1.52609 1.51717 58 54 74
-2.22708 -1.25589 1.49533 204 204 214
-2.78717 2.95607 1.5982 38 41 52
10.3938 11.6365 -10.2609 169 178 185
9.70331 18.2555 -9.39769 130 128 138
12.9274 11.3894 -6.23608 216 215 224
12.5996 10.9206 -3.86579 205 206 216
9.82282 -7.55204 -1.67509 65 61 81
9.5563 -3.44309 -9.75016 131 129 138
9.6665 -4.87724 -10.2358 55 52 67
9.20961 -2.83911 -9.09031 141 143 152
9.43786 -6.21181 -10.2019 57 62 91
10.0593 -4.67939 -9.84031 163 159 176
9.17337 -5.07238 -9.22311 137 138 152
9.88418 -8.35166 -10.9375 49 47 68
10.2615 -13.1523 -13.5777 77 74 79
9.86534 -8.5582 -10.6389 54 50 71
8.60344 11.3744 -10.074 65 65 75
9.82039 -4.88074 -8.61779 51 52 75
10.7201 11.2788 -10.8954 61 60 66
10.32 -8.3826 -10.2622 159 162 186
9.60391 -10.1448 -10.6751 53 56 78
9.87669 -9.26132 -10.2665 144 145 156
9.48098 -11.3102 -10.8604 139 136 154
9.26827 13.2079 -10.032 64 66 81
9.72289 -6.75673 -7.96817 77 86 109
10.718 11.3792 -9.41198 92 49 82
10.1019 -8.55891 -8.57603 50 30 57
12.0244 11.2186 -9.41213 91 47 82
10.0703 11.3604 -8.47417 215 211 217
9.99288 -7.38856 -7.7596 161 155 176
9.82268 -10.5011 -8.9485 49 45 61
14.1726 11.2817 -10.0789 153 158 177
13.1392 11.5205 -9.67313 94 45 80
10.0083 -11.858 -9.33595 139 139 152
9.88706 -10.6407 -8.54575 58 53 73
9.74351 -4.97029 -6.19504 57 58 89
10.216 11.3436 -7.4922 200 203 204
9.73153 -4.37844 -5.66491 154 160 183
14.5198 11.423 -8.82373 220 220 234
12.5297 11.2573 -7.9354 88 92 101
9.86107 -15.2336 -9.17435 104 97 128
11.8649 11.0039 -4.84257 88 87 93
9.84949 -8.56184 -6.51777 56 55 77
9.65619 -7.75133 -5.83933 185 189 209
11.9582 10.9638 -6.80051 91 44 82
-16.6209 -5.43835 -7.79232 50 47 60
10.2406 -11.3368 -6.93544 55 53 72
9.72102 -8.49807 -5.74246 56 55 81
11.2598 10.8546 -5.88941 205 206 217
10.1376 -8.09694 -5.41209 163 160 174
-15.37 -5.52176 -6.55743 88 126 222
10.5871 11.014 -5.5255 76 84 94
16.0634 11.2058 -7.01501 87 51 87
11.6966 10.6678 -5.27498 74 77 81
13.1885 11.4028 -5.70234 80 84 96
9.65186 -15.0125 -6.49106 160 161 166
9.71472 -5.16603 -3.90088 50 43 71
9.66222 -6.96029 -3.98289 52 52 77
10.7102 11.0182 -4.33884 103 63 83
10.5097 -9.45766 -4.45082 54 56 63
11.829 10.682 -4.24165 92 41 76
9.99963 -11.0834 -4.3335 50 43 61
11.7094 11.3321 -4.05963 172 175 179
9.81176 10.9833 -3.62753 235 228 230
9.90429 -7.27496 -3.31866 51 44 69
21.3253 10.7485 -5.78511 156 166 174
9.60311 -11.7994 -3.99829 142 143 153
16.0156 10.9323 -4.42827 85 52 89
11.1723 10.6583 -3.48865 215 223 230
13.8525 11.3113 -4.03316 211 212 218
9.98927 -11.1194 -3.65181 48 40 58
9.76702 -15.4325 -4.34134 122 122 122
11.6342 10.4662 -2.96029 72 74 82
14.5514 10.4809 -3.42017 210 210 219
13.1236 11.181 -3.1819 81 79 86
10.0963 10.864 -2.56861 172 170 176
9.34645 -5.73727 -2.14541 135 133 151
9.27725 -3.61259 -1.87219 131 129 144
18.3333 10.9193 -3.65966 184 186 190
20.8468 10.8098 -3.72993 189 197 210
15.6345 10.6387 -2.95715 71 73 78
9.82402 -12.0899 -2.689 125 120 137
9.58657 -6.3454 -1.98911 142 141 155
9.71684 -9.46055 -2.24906 141 135 154
10.7077 10.832 -1.90055 98 42 57
9.72243 -5.91618 -1.57841 49 41 49
11.635 10.3695 -1.77913 94 34 60
9.08987 -9.31759 -1.77264 56 52 59
10.493 -12.8021 -2.12883 57 56 64
9.92873 -7.95766 -1.27727 190 198 224
9.13499 -6.36581 -1.04431 182 193 218
11.7733 -6.65028 -1.12525 88 86 94
11.2298 10.7062 -1.08472 197 202 211
-9.12539 10.4129 -0.902413 214 227 237
-8.29335 10.4134 -0.214109 37 38 44
-8.53278 9.88146 -0.0129549 192 200 209
9.70572 -9.00322 -0.0584218 47 45 57
10.864 -6.81888 -0.0222158 36 25 34
9.78582 10.6277 0.239038 199 197 208
9.40539 -8.82057 0.218515 52 45 58
9.2772 -13.0184 0.612117 58 52 62
15.0935 10.3521 0.796374 28 24 38
-8.09601 9.97532 0.6036 68 60 62
9.81978 -6.38558 0.932228 64 59 72
11.4525 10.346 1.22907 198 222 225
8.74955 11.6383 1.13868 52 51 65
-11.9925 -4.95328 1.02377 30 27 37
9.11892 -3.99826 0.814898 33 25 36
9.99352 -3.30365 0.896185 29 23 38
7.66912 -10.4364 1.1985 126 123 130
-13.5105 -1.45093 1.25418 48 47 64
4.95126 -8.51158 0.93353 34 30 36
7.14981 -11.5178 1.19001 40 27 46
9.47433 14.8941 1.64366 54 56 66
9.50084 10.4814 1.37249 190 187 193
16.5319 8.6538 2.11761 28 27 42
15.0402 10.0801 2.06374 43 43 61
11.002 10.5972 1.77337 64 62 68
7.55662 15.1855 2.17082 169 169 177
-3.43568 8.70763 1.13382 150 149 156
4.26104 -6.5769 1.19425 110 102 118
-3.35903 -4.98186 1.32283 142 140 148
-3.32533 -1.37995 1.46594 134 133 143
-2.8125 -1.39173 1.49178 168 166 175
9.9372 -5.02336 -10.5965 55 53 67
9.89265 -10.5882 -11.3636 51 44 68
9.56979 11.3809 -10.1458 200 202 210
9.94447 -4.83625 -8.42308 56 73 110
9.9402 -6.85676 -8.61193 59 72 114
8.83097 12.7732 -9.79746 62 65 79
9.44292 -9.21835 -9.28737 139 137 152
9.63076 -8.08344 -8.42085 49 47 70
9.43648 -4.82364 -5.76607 58 59 91
9.54942 -9.58135 -7.1177 136 131 145
14.2515 11.4971 -8.6452 185 186 200
12.5489 11.3185 -7.37393 63 68 107
9.94267 11.0884 -5.95096 205 200 211
8.98419 20.9311 -9.1293 41 44 57
8.44646 -14.3179 -7.24353 63 60 79
-16.0432 -6.0033 -6.93801 94 128 226
-17.2779 -3.69631 -6.87446 41 36 52
9.97156 -5.17345 -3.79988 56 67 111
-16.9606 -6.32442 -5.91346 40 41 50
12.2597 10.8148 -4.53109 95 46 82
-7.46371 33.6737 -9.62448 151 164 177
17.4187 10.6147 -5.66171 145 153 168
9.862 10.8642 -3.52254 232 228 230
19.2197 10.8463 -4.86785 75 78 85
13.7145 10.8612 -3.73585 187 193 202
15.1317 11.2416 -3.82316 207 202 201
8.17509 -5.00912 -2.07128 140 143 148
12.1343 10.6754 -2.84145 70 72 79
11.1675 -9.39288 -2.99166 164 160 175
10.8272 -11.8997 -3.00797 166 162 169
9.77409 -6.48891 -2.04928 139 138 152
12.3598 10.726 -1.87239 96 36 57
10.0877 -6.06679 -1.50601 35 29 38
9.18098 -4.02664 -1.2084 38 32 39
8.60153 10.7507 -1.10539 90 90 104
8.75797 -16.3885 -1.71841 52 44 51
-9.89013 10.8724 -1.01196 220 228 227
8.37622 -19.3067 -0.979777 71 65 73
9.11911 -4.14793 0.673074 31 27 37
6.18258 -10.2535 1.03726 51 49 56
9.34273 10.4783 1.22349 200 201 205
9.70956 13.0351 1.48731 106 125 113
8.9833 14.0673 1.46374 66 72 73
9.48481 -6.89292 1.0823 124 121 129
16.4408 8.74088 1.93071 30 29 39
10.6727 10.3689 1.64843 58 54 62
10.07 -11.8717 -8.21689 142 139 148
-16.6767 -5.23648 -7.82124 57 54 63
9.87688 11.0863 -8.11638 207 206 207
11.3576 -8.99673 -8.66741 167 165 179
-16.8267 -4.6253 -8.24251 51 56 63
10.2081 -12.0451 -5.54088 134 133 141
12.8932 11.105 -4.99324 81 85 90
-8.93958 10.4821 -3.66101 212 207 215
10.0529 10.8378 -3.53985 174 180 184
13.3324 10.5938 -3.61474 186 193 203
15.4739 10.5321 -2.33164 60 59 79
9.28478 -9.63215 -1.52363 134 1 99
10.2321 -9.62262 -0.235054 50 44 57
11.0043 -6.633 0.532077 66 71 55
9.38311 10.2848 0.738069 194 195 202
7.67609 11.5528 -8.73373 62 64 76
-9.25785 10.3074 -1.05597 130 103 101
5.00454 -8.81439 0.993389 35 27 42
-11.9873 -3.53505 1.54913 125 128 134
9.80384 -4.24509 -8.29613 190 214 236
11.1148 11.3873 -9.88247 152 173 188
13.4369 11.4771 -10.5094 164 171 184
9.75465 -7.26171 -7.9796 144 147 157
9.52374 -6.27543 -7.11149 170 170 181
10.1173 -11.082 -8.10606 165 165 175
4.37403 -11.4878 -6.94456 62 46 108
4.22251 -9.98554 -6.10596 69 48 144
10.3541 11.021 -6.24414 217 217 231
22.103 11.3719 -10.8747 148 166 179
-11.7533 -7.33236 -6.63083 73 90 161
-18.6286 10.9401 -8.09716 96 69 60
25.9402 11.137 -10.6666 68 67 79
-10.6213 -7.78282 -5.69273 73 91 171
-10.0214 -7.26519 -5.21707 118 157 239
-12.0475 10.7369 -5.04813 70 66 76
-17.695 10.8159 -6.62245 83 72 71
10.061 -11.1968 -5.3538 161 160 169
9.53389 18.5745 -5.91529 153 155 161
-15.8044 -6.51012 -5.68167 103 145 240
-31.6023 10.8137 -9.96063 189 183 196
10.1002 -16.4987 -6.45043 54 41 70
-31.3375 11.0883 -9.40153 70 64 67
-17.8409 -3.15374 -5.40129 92 131 224
9.86503 -6.98218 -3.77273 161 180 189
26.0639 10.9592 -7.48851 87 93 108
-15.697 10.7345 -6.92415 59 53 52
9.5673 -4.37002 -2.73207 78 73 83
9.87386 -7.02458 -3.14451 170 181 192
6.40331 11.2961 -1.72379 92 97 111
13.7217 10.5642 -2.38293 98 108 115
10.2377 21.5741 -2.96975 59 56 70
9.4932 -3.29555 -1.5096 123 122 131
10.1895 10.6947 -1.1213 204 206 208
9.95155 -20.878 -2.24537 124 124 117
-9.00343 10.3321 -0.927319 216 227 239
9.72148 -8.23096 -1.07706 70 54 71
10.6577 -6.36702 -0.930632 39 19 40
6.47246 11.1616 -0.64452 98 88 103
9.82431 20.6811 -1.0389 78 54 66
-9.96689 10.2126 -0.59339 217 213 188
-10.0452 10.1569 -0.492964 85 70 69
-12.63 10.1907 -0.601323 205 198 170
9.80822 -7.30205 -0.543511 52 41 64
9.91971 10.6459 -0.321964 227 234 244
9.39699 -3.45738 -0.309659 62 50 69
6.46746 11.2691 -0.0624571 68 68 121
9.73654 17.4821 0.370867 73 72 84
9.7974 -10.0201 0.15698 135 5 99
-11.9851 10.2668 0.407867 103 104 118
9.75297 -8.136 0.423029 193 197 172
6.4973 14.5588 0.547494 255 255 254
-12.2125 10.2871 0.541139 238 250 254
6.72517 14.5044 0.931486 89 104 128
-12.0591 10.2249 0.959726 152 166 178
9.79241 -11.2333 1.01686 100 96 105
9.2466 12.5324 1.03508 111 131 120
-11.1587 10.3707 0.972826 68 67 74
11.2575 10.4396 1.16817 77 80 90
9.52139 17.7642 1.52445 140 140 133
9.3906 18.0067 1.52483 64 70 73
9.13761 12.5764 1.18744 60 59 73
-7.01727 11.6533 1.0043 147 164 45
9.41277 13.1187 1.29651 51 53 63
-7.18179 10.3684 0.964764 189 216 204
-11.7163 10.2849 1.27452 69 70 78
10.0873 10.4249 1.29856 67 74 84
-6.42965 11.1581 1.07845 47 45 50
-7.8955 10.2608 1.20096 90 96 114
-8.64025 10.2655 1.25142 85 86 95
-8.85209 9.11808 1.21675 62 60 75
-7.07286 10.3005 1.34831 221 231 252
-6.40798 10.2935 1.34817 213 223 247
10.2032 10.5202 1.81473 105 113 121
4.95529 -5.40148 1.33874 123 122 125
-3.21936 -5.65211 1.24449 113 115 116
-2.28006 8.97572 1.63349 143 146 148
-2.49393 -2.86414 1.45545 153 157 155
9.54881 -3.91635 -8.52566 72 69 70
9.13684 12.0633 -9.96438 148 149 158
9.64934 -12.9576 -11.5648 37 6 110
9.89549 -8.3582 -9.00658 67 72 87
9.18489 14.1736 -9.31734 146 147 158
9.12698 15.5249 -9.13513 145 144 156
9.37604 17.69 -9.58777 66 68 87
9.99768 -12.6436 -9.48602 57 51 70
4.89211 -12.6451 -8.03166 69 62 121
9.56843 -10.2146 -7.98503 70 54 73
-16.3049 -4.89368 -8.54344 45 49 59
-3.42306 -6.62389 -4.37953 107 128 216
-3.32461 -6.84197 -4.46218 68 60 115
11.0586 11.1398 -6.21546 212 210 221
20.8396 11.1236 -9.6746 131 144 153
10.3796 10.9657 -5.75855 71 74 79
9.75593 -10.1455 -6.69568 62 63 76
-11.5896 10.7294 -5.89523 207 167 136
-16.1955 -5.69502 -7.42037 91 125 219
-3.44125 -7.58933 -4.17228 85 97 165
9.67079 23.0701 -9.08472 167 176 178
9.5778 -8.16377 -5.63085 59 62 91
-27.0828 10.4909 -10.9096 190 173 145
15.1587 10.9602 -6.53681 91 55 89
9.19995 -22.1524 -9.85195 59 53 74
14.484 11.0692 -6.20494 229 230 246
-9.15012 -6.58484 -4.66189 118 161 249
-17.1417 -3.21428 -6.41083 42 42 58
14.0104 10.9144 -5.73477 71 68 72
27.2779 11.4526 -9.97777 72 82 78
15.1142 10.8719 -5.69333 71 70 78
-11.9727 10.9909 -4.63451 65 36 40
-12.0036 10.7213 -4.48084 83 78 90
10.4177 10.8867 -4.08983 100 46 67
9.72146 19.6434 -5.99844 166 167 171
-12.3617 10.6333 -4.55231 236 243 251
9.2876 21.1897 -5.84722 72 63 92
9.67846 19.4938 -5.25844 184 192 184
9.90312 -5.30092 -3.15267 48 46 61
15.1172 10.755 -4.05442 88 57 94
-11.8903 10.5558 -3.27873 73 66 65
9.72507 -8.92218 -3.40668 67 57 77
9.73378 19.178 -4.15001 77 58 73
10.5134 -12.2147 -3.85051 71 65 77
17.8587 10.8942 -4.12879 90 65 101
-17.6561 -2.46976 -3.86148 98 138 228
-17.6102 -2.84461 -3.89604 38 43 58
17.7557 10.8072 -3.32883 84 83 79
13.6789 10.6967 -2.24437 170 185 189
-11.4833 10.8089 -1.90032 190 152 123
14.9787 10.5242 -1.99412 94 45 65
9.64576 -9.4039 -1.83003 125 120 130
10.0447 -16.1514 -2.33242 151 149 147
13.8935 10.5478 -1.61455 97 51 70
-15.4722 -2.62143 -1.46557 64 64 77
7.5534 -12.5331 -1.47496 104 92 110
10.1681 21.308 -1.53696 76 54 67
9.45548 -6.60294 -0.820765 186 195 218
-9.05579 10.2486 -0.636193 68 64 81
9.73144 -11.8749 -0.976751 107 0 81
10.8922 26.5183 -1.13541 68 61 71
-9.4122 10.2899 -0.397822 59 64 60
-11.7959 10.349 -0.429037 62 58 73
-12.283 10.3593 -0.275604 254 255 255
17.0461 8.46906 -0.218929 44 46 67
12.3496 10.9249 -0.134911 64 62 64
10.0775 -25.0059 -0.257712 35 20 41
9.56348 18.4697 0.240422 47 43 51
10.0092 -11.9666 0.0437884 108 113 127
-12.4211 10.2007 0.2056 68 74 71
9.91665 -11.0024 0.162851 130 144 152
12.3906 10.5514 0.397066 84 92 99
-12.4192 10.1747 0.469974 65 66 67
-3.92403 12.9511 0.427825 95 87 85
10.3794 10.4906 0.611605 202 224 228
-32.9314 -2.89699 1.27678 46 43 53
-11.8246 10.2453 0.681966 44 55 68
-12.3847 10.2779 0.715876 226 222 203
9.9206 -14.8778 0.888093 55 46 64
-10.6108 10.4652 0.74567 121 137 138
-11.5712 10.213 0.91026 56 46 54
9.20234 11.9868 0.970139 113 132 119
-10.7951 10.3253 0.938516 54 52 60
19.4812 5.92236 1.4217 78 82 93
9.1116 12.9409 1.06866 111 131 116
-10.1805 10.3676 0.947263 48 44 58
9.38853 17.1517 1.45924 158 169 170
-10.5955 10.4253 1.09654 166 188 193
-9.74968 10.2757 1.06589 169 186 199
9.14697 12.3092 1.29695 107 125 119
13.0554 10.3363 1.48724 187 212 211
-4.17331 -6.9656 0.855153 43 32 57
5.95181 14.0127 1.4163 226 235 255
-4.25935 13.3685 1.2443 36 35 49
-6.26662 10.3567 1.077 229 243 254
13.4519 10.3083 1.66256 83 86 85
9.07343 12.6582 1.49587 49 49 58
-14.0198 5.55189 1.49103 49 50 62
-6.63035 12.1164 1.40778 35 35 39
-4.05552 12.8728 1.40483 139 140 142
-6.32378 10.3876 1.33598 211 222 249
-8.73576 10.1872 1.52017 38 39 49
9.04695 10.5384 1.63468 119 118 125
6.15295 14.0064 1.77867 188 197 213
-6.64955 10.3452 1.40712 96 97 113
-8.32938 10.1541 1.59494 46 49 63
-6.23191 -5.44687 1.26794 87 93 87
-7.06849 10.1876 1.55641 140 141 147
-6.79937 10.2567 1.56459 55 55 71
-9.29871 7.0312 1.53235 121 121 116
9.65426 -0.820413 1.50244 149 152 162
-8.09681 -2.30716 1.37605 50 46 69
-5.88893 10.2214 1.58943 56 54 62
6.84069 -3.60541 1.36943 72 70 91
9.03522 10.4856 2.06125 94 91 96
-2.88127 -4.68188 1.35169 155 154 165
-2.5755 -4.45156 1.28586 163 160 169
7.22914 -1.16668 1.54505 80 73 96
7.99867 6.37617 1.97378 116 108 115
4.0869 10.3453 2.01609 128 116 129
-2.9085 -3.72146 1.37115 58 51 58
-2.44147 -3.72709 1.37913 59 50 75
-3.68087 5.92246 1.25318 74 80 97
-2.44217 -3.57711 1.44072 157 158 153
-2.56881 8.0069 1.63733 70 67 86
-5.33009 -0.669809 1.45396 104 109 118
-3.6062 -2.29679 1.39175 175 185 185
-2.9892 -2.35494 1.38136 52 52 73
-2.34276 7.52215 1.63961 149 142 154
-2.29779 -2.8424 1.48748 157 153 162
-3.7065 6.07393 1.56111 119 121 137
-2.64809 -2.18978 1.42618 161 171 161
-3.67868 5.92356 1.57104 66 67 81
-3.42922 -1.50699 1.49598 129 129 136
-3.25541 5.51643 1.60556 69 65 83
-2.7899 -1.23888 1.49925 149 148 165
-1.9406 -1.58367 1.47636 98 92 120
-2.21394 -1.44355 1.50189 191 194 196
-2.07708 -1.55917 1.51201 106 101 120
-2.95653 4.5477 1.59035 122 122 124
-2.46847 5.01973 1.62241 151 158 158
-3.14512 3.90511 1.57249 116 119 126
-3.20619 0.615966 1.56903 168 173 187
-2.6774 4.06029 1.6313 79 79 91
9.7058 -4.87709 -9.43583 110 114 122
9.73145 -12.1498 -10.9618 66 57 76
11.5631 11.1985 -8.58946 219 220 238
10.0751 -10.9123 -9.38802 59 52 64
10.0838 -10.2732 -8.72599 158 180 197
11.1507 11.1709 -7.48884 148 155 161
17.2279 11.4257 -10.1094 135 139 146
13.7964 11.1138 -8.4714 217 217 235
10.5161 -12.9816 -9.36149 147 146 157
20.5442 11.4106 -11.1973 50 51 56
9.9839 21.4738 -10.5937 37 37 50
10.4128 11.0119 -6.56712 95 50 81
-16.2696 -4.84733 -8.45651 41 43 56
10.4742 11.0531 -6.19291 218 216 227
10.047 -7.0616 -6.20783 164 166 184
10.3783 10.89 -5.66654 81 81 83
9.6511 -10.0309 -6.61701 57 60 72
-9.18993 -5.71222 -4.50318 81 102 179
-16.4681 -6.12601 -6.73927 98 133 232
-30.2312 10.5572 -11.1616 148 143 136
-12.4683 12.1052 -5.19754 56 29 31
-6.30383 -11.6514 -4.91025 63 54 107
-11.8801 10.7276 -4.52354 79 74 83
11.5949 10.8037 -4.39529 93 47 83
-12.3982 10.6241 -4.61713 226 227 228
-15.6244 -6.28168 -5.34912 47 49 70
9.85552 -8.22146 -4.23241 65 68 86
9.51785 19.6113 -5.5796 134 144 159
-34.6267 10.6503 -10.2244 68 62 61
14.1916 10.8557 -4.41894 89 53 87
-12.3172 10.5752 -3.99093 237 241 250
-12.2686 10.4597 -3.54969 226 222 232
9.7213 22.0068 -5.19182 67 65 74
-11.7861 10.5412 -3.24998 72 62 62
9.80871 22.7195 -4.38423 197 201 208
-20.8442 -2.04798 -4.12527 66 83 126
9.5261 20.0624 -3.72543 71 42 60
18.7347 10.5307 -3.12419 81 83 86
9.44505 -3.56686 -1.43892 131 131 145
10.9778 10.8078 -1.70197 102 46 65
9.84039 -15.6422 -2.22898 150 149 150
9.71427 -10.0233 -1.26542 140 2 102
10.6438 -20.1346 -1.97683 41 31 43
9.81511 -8.53918 -0.777279 109 127 182
-8.65857 10.3787 -0.498095 84 83 94
15.7792 11.3526 -0.122674 56 49 67
8.99147 17.0642 0.156785 58 55 65
16.5785 6.49957 0.303471 24 24 36
-12.4771 10.191 0.24225 49 63 53
9.6986 -7.51884 0.411786 155 177 194
5.89682 16.237 0.682362 69 63 81
8.63309 14.1765 0.768134 60 58 68
9.97607 -14.8811 0.869483 56 50 63
-9.34338 10.1748 0.659287 51 51 55
-11.5709 10.2051 0.846728 57 55 48
-10.9402 10.3768 0.895961 64 63 60
9.73324 -9.45563 0.972568 70 59 76
-11.2987 10.283 1.05539 155 176 190
6.04761 14.3149 1.13025 217 241 232
-10.507 10.3677 1.1012 172 190 208
11.7603 -6.50567 1.18206 39 37 47
13.0624 10.4092 1.45628 190 213 219
-7.48105 10.3323 1.06256 232 245 254
-7.04144 -5.6535 0.942812 66 66 85
-4.2011 13.1175 1.19389 36 35 49
-13.4738 -1.46529 1.3026 56 56 69
-13.3224 -1.79257 1.37612 123 120 134
-7.13879 12.9034 1.49439 36 33 41
-3.26679 -6.26783 0.934933 171 168 176
12.6644 10.391 1.80875 95 99 102
-3.95766 12.545 1.43233 121 122 130
-6.81883 10.2148 1.32242 221 231 254
-4.4071 12.5795 1.71984 110 107 119
-3.38489 11.1042 1.67165 153 154 159
-7.42984 8.10583 1.61766 135 139 151
6.50201 -1.63677 1.5124 140 136 146
-2.49582 -3.64366 1.30053 176 175 177
7.7946 6.6297 1.9782 106 95 95
6.16901 -1.54366 1.59554 104 90 110
-3.62474 7.18692 1.57449 155 157 161
-5.3615 -0.671655 1.46735 109 112 117
-3.71201 5.98866 1.42594 68 75 89
-2.32618 -3.16921 1.47892 60 59 80
-2.86593 7.47149 1.68922 73 74 81
-4.21076 5.0747 1.56864 71 71 88
-1.79899 -2.0034 1.43668 56 53 75
-1.87047 6.56581 1.66157 52 52 74
-2.71037 -1.31597 1.46511 159 158 172
2.2681 -1.53996 1.50746 107 107 123
-3.76065 4.2807 1.56418 108 113 119
-2.64652 5.3782 1.64765 159 158 151
3.64163 4.58843 1.76338 101 98 105
-3.36528 0.208924 1.5619 100 102 115
-2.85568 0.544379 1.58346 153 152 166
9.8903 -4.99107 -8.02207 55 60 75
-12.6314 11.1527 -10.0158 186 198 209
-11.6394 11.077 -9.46537 79 67 64
9.84056 -10.306 -10.1324 172 167 183
9.61139 -11.8532 -10.0237 50 38 66
10.3586 -8.90569 -8.72913 50 43 61
9.99112 -10.7151 -9.19466 48 43 66
13.594 11.4108 -8.94184 195 204 201
-3.7913 -6.62997 -4.73007 138 175 248
10.7229 11.1401 -6.78938 96 45 77
9.57896 11.07 -6.18308 220 221 233
9.36527 -4.67763 -5.24634 60 63 96
9.83025 -11.907 -7.18151 148 149 157
-10.3584 -6.7887 -5.53061 110 149 247
13.5753 10.8137 -5.89131 205 210 227
-17.2312 -3.3216 -6.63999 36 41 56
9.65493 18.848 -6.48577 69 56 79
17.4824 10.9025 -6.05861 208 209 227
9.62583 -7.53882 -3.75421 135 128 141
9.91108 -5.36913 -3.12023 54 50 61
10.5962 10.8267 -3.28358 108 107 111
13.5282 10.6585 -3.48795 205 209 220
10.3105 21.9955 -4.9238 216 230 233
-11.6929 10.6007 -3.20311 66 57 54
13.1211 11.0006 -3.27705 76 77 82
10.1996 -16.2706 -4.50091 143 148 140
9.82195 19.0021 -3.94677 76 48 62
11.089 10.7832 -2.51631 145 146 155
11.3043 10.6754 -2.27481 144 164 162
6.45279 11.0188 -1.60328 91 90 91
19.4589 10.777 -3.08146 86 87 88
14.6999 10.6657 -2.34243 174 186 196
9.84985 18.8573 -1.44984 75 46 62
-8.98635 10.3484 -0.877755 230 240 250
10.3632 10.5179 -0.621873 232 233 228
9.76769 -9.07315 -0.668097 44 43 54
9.53946 -6.86754 -0.540093 63 69 73
17.5697 8.76834 -0.163399 29 28 37
9.28598 15.7588 0.664196 133 134 143
-11.6403 10.3084 0.729398 69 72 75
5.95638 -9.82587 0.743319 71 64 76
-11.8994 -4.869 0.986447 27 26 34
13.125 10.6042 1.37742 196 217 224
-7.05017 -5.67923 0.927463 67 65 86
9.17328 12.4076 1.66164 119 133 127
-6.4223 16.7645 1.62168 36 33 39
-6.17477 11.0174 1.18327 52 56 62
-6.37386 10.3927 1.17294 230 241 254
-6.11387 15.0589 1.844 157 163 163
18.88 7.8281 2.57593 25 25 32
9.31587 15.985 2.28791 179 180 185
-3.58319 -6.09387 1.1313 157 152 164
-6.11951 -5.24864 1.24515 83 85 85
-7.49098 8.08405 1.61445 135 138 146
7.5596 -2.18065 1.47689 80 69 74
7.08558 -1.07148 1.57907 84 87 100
4.38696 -3.71048 1.47133 65 53 80
4.94865 -2.67151 1.52728 81 55 92
-3.57774 -2.28565 1.39534 172 182 192
-2.42305 -1.85973 1.43455 44 36 49
-2.79706 0.162733 1.56255 133 138 144
-2.8034 3.81387 1.59741 46 45 54
9.39451 11.397 -10.4243 205 208 213
9.60586 11.2821 -10.3167 210 210 215
10.0254 -5.00379 -8.20496 47 55 78
9.12769 -12.6923 -11.0662 75 69 78
15.6568 11.0689 -10.5948 63 63 71
9.70663 -4.98703 -5.50556 60 59 91
-10.6265 -7.10019 -6.36523 48 48 78
20.6639 11.1653 -8.89807 159 164 176
-9.18187 10.2047 -2.95328 78 65 60
9.94282 -8.75964 -3.4776 53 53 67
-9.58417 10.2914 -0.25058 49 45 51
-11.5776 10.5103 -0.289353 50 51 54
-11.6588 10.4673 0.651715 64 72 54
-9.48112 10.098 0.643038 64 73 59
11.6234 10.1021 1.19851 198 221 223
7.95517 -11.3738 1.1923 117 108 129
-13.8987 -3.60393 1.26057 169 147 126
-9.01975 9.47517 1.42391 57 54 63
8.75329 -1.47496 1.39975 137 132 147
10.0345 -8.63714 -10.958 58 56 69
12.5467 11.2042 -10.9377 62 60 67
9.96109 11.2871 -8.31706 215 215 225
9.18572 -5.6148 -6.58893 141 138 152
15.8923 11.2122 -7.38697 71 79 120
10.4093 -5.06894 -4.91698 120 116 141
-12.8404 10.584 -4.84057 216 212 213
9.74057 -9.99848 -4.82904 129 125 134
15.5441 10.8682 -4.78017 83 86 91
8.16802 -14.0848 -5.01352 66 60 73
-18.3403 -2.49504 -4.44889 102 144 239
9.71905 10.7083 -2.42026 205 196 194
11.5082 10.8249 -0.996388 197 200 212
9.54536 -7.04249 -1.05442 189 197 222
9.84532 10.6264 -0.7747 202 204 212
10.6601 21.7742 -1.49252 76 53 67
10.9636 24.344 -1.45299 76 53 67
10.1019 -11.2956 -0.597372 114 125 137
10.1421 -3.33757 0.899638 28 24 35
-9.50161 9.08299 1.24497 165 169 180
9.19221 -3.68598 1.33598 108 105 111
-2.84619 4.43312 1.59397 48 45 55
-12.7414 10.3404 -2.64706 205 205 196
8.55043 -11.5614 -9.3759 73 75 80
9.62236 -4.80666 -5.82434 60 64 93
9.606 -4.87924 -3.43895 73 65 108
5.87549 -9.99745 0.874458 59 52 57
11.6679 19.1696 -10.2196 139 145 152
10.0065 -12.461 -14.1459 245 250 253
9.92811 -7.9431 -8.2727 64 77 114
-15.6767 10.7821 -7.94153 92 66 55
9.56623 -6.3988 -6.19149 67 70 93
-19.1968 10.9477 -9.12073 82 72 64
9.48094 -4.11609 -5.03587 78 66 86
16.4583 11.354 -7.54363 159 177 199
-22.3409 11.038 -9.81911 181 192 210
9.62978 23.6616 -9.07986 142 137 143
-10.942 -7.95834 -6.48019 65 75 130
14.6226 11.1595 -6.62993 102 62 86
-3.37459 -7.18467 -4.24313 130 167 243
9.44554 -6.34135 -5.15383 82 69 102
-16.0343 -5.58209 -6.8719 96 134 227
-4.54018 8.75338 -2.49171 47 41 50
-15.3423 10.7785 -5.7511 90 59 53
-17.9363 -3.10815 -6.10442 44 51 69
9.52869 -9.92722 -5.23639 164 158 175
-17.6845 -2.97731 -5.58349 44 46 69
14.7839 11.0794 -4.16929 94 63 88
13.7731 10.7372 -3.72142 208 209 222
21.4592 10.8873 -4.526 90 70 95
11.1694 10.8925 -2.38939 154 167 168
9.72803 -11.2716 -3.2201 72 60 83
9.25572 10.7183 -1.17101 208 212 228
6.55726 10.9159 -0.692322 85 78 100
10.4816 23.4973 -0.96789 78 53 67
9.56182 -6.71692 -0.61833 63 60 73
9.07922 11.9025 -0.0518464 64 68 80
13.8135 10.6368 -0.0806777 52 48 53
6.47149 14.5444 0.687076 254 255 255
10.41 10.4749 0.72287 199 223 227
9.25263 15.2056 1.08575 115 132 135
-9.77069 -4.74981 0.709403 71 67 75
9.92796 -12.0309 1.00573 88 81 99
9.53124 13.445 1.17326 112 130 119
-12.6173 10.271 1.25399 87 76 90
-7.87022 10.3109 1.04675 189 204 216
-3.2418 -6.14274 0.762021 127 127 126
9.33408 17.2717 1.71117 98 99 113
6.03811 14.3757 1.49842 227 233 255
-8.13975 10.3009 1.30897 208 223 249
6.04371 14.1355 1.66743 146 148 154
-3.69617 12.8308 1.74593 142 138 126
10.2444 0.222904 1.68489 52 46 59
9.87078 7.69549 2.03837 114 123 139
6.29106 -1.4875 1.60767 59 34 84
4.33572 -2.93799 1.51213 146 147 146
-2.24576 9.89693 1.67498 60 57 88
-3.67857 9.25141 1.70126 133 137 137
-2.71969 -2.34772 1.38213 54 47 70
-1.47488 -1.71353 1.47772 168 170 175
11.289 11.3534 -10.7849 172 184 198
9.83839 -8.91276 -10.3541 142 136 153
9.24373 14.9876 -9.32742 146 147 156
-13.5165 11.2006 -9.70529 69 68 69
9.60307 -10.9311 -10.8169 145 144 155
13.0334 11.0737 -8.481 220 222 237
9.23504 18.1185 -8.53236 67 49 79
-21.3083 10.8372 -10.3147 73 72 77
-10.9547 -6.74785 -6.46675 106 140 228
25.0689 11.1905 -11.0612 53 56 66
-11.167 -7.63231 -6.68075 47 48 71
-24.7671 10.6224 -10.3896 63 52 51
-15.8715 10.5207 -6.90263 217 218 227
-12.0864 40.3074 -15.0716 149 157 157
27.3042 11.3669 -11.0505 61 62 73
-25.3893 11.3274 -10.3132 82 58 43
-15.7312 10.6954 -6.63533 65 53 54
17.176 10.9819 -7.14022 126 133 123
-18.2402 11.0129 -7.53108 216 220 229
-19.7602 10.9516 -8.10108 99 72 61
9.425 -4.13327 -4.6095 161 156 171
-10.6245 -8.08845 -5.85969 45 41 80
9.31383 18.0994 -6.10688 69 56 81
-19.0825 10.7381 -7.30743 204 202 212
11.5365 10.805 -4.04423 98 53 82
-12.365 10.6234 -4.08252 234 240 250
9.99457 -8.83574 -4.32116 54 50 67
-21.1745 -16.228 -7.62793 43 42 53
9.85434 21.1606 -4.94857 196 210 217
8.82333 17.1628 -3.40928 76 57 72
15.2887 -3.55273 -3.04582 127 135 152
9.0783 17.5363 -2.7566 62 61 68
10.1325 -16.326 -3.92801 50 40 63
-21.6618 -1.82221 -3.82054 63 80 118
9.72468 -9.05096 -2.69752 74 71 88
-2.97275 -5.47327 -1.47149 100 95 91
-3.29746 -5.41543 -1.47976 102 102 104
9.91735 22.9458 -3.15935 163 164 163
9.7949 -15.0949 -3.07487 114 113 116
11.0432 10.805 -1.65909 106 52 73
9.84673 22.7501 -2.4642 186 192 189
22.1563 10.8281 -2.44527 151 164 168
9.43925 18.0565 -1.60278 71 47 64
27.5398 10.5573 -2.38001 141 147 160
12.455 -20.7407 -2.43145 114 107 115
9.71962 18.9422 -1.15164 78 50 63
10.5801 -6.40202 -1.09313 30 23 39
8.29415 -13.2983 -1.36326 44 30 53
6.49101 10.5425 -0.0703505 162 163 168
10.1472 10.5932 -0.118902 71 69 69
11.0126 10.8431 -0.114317 61 59 62
9.34461 16.9709 -0.119282 158 166 181
13.404 10.8313 -0.0927283 60 59 65
9.05194 12.4746 0.0236366 73 79 82
-12.3037 10.3056 -0.0219126 240 249 247
13.6254 10.6965 0.0831762 209 212 215
9.05318 12.3732 0.255774 110 130 118
-11.5401 10.2251 0.174764 57 57 53
13.6354 10.5213 0.490612 93 99 112
13.3788 10.5829 0.653501 178 202 205
9.91868 -16.3023 0.594349 111 113 100
9.16051 14.9181 0.830526 56 61 68
-12.6688 10.1732 0.719656 49 53 51
-11.9174 -5.18702 0.572515 111 106 110
9.42617 17.6822 1.23215 53 51 67
-7.58874 10.2158 0.826235 40 41 46
-3.857 12.7837 0.973797 96 91 90
5.75946 14.3312 1.24738 102 103 112
-13.4018 -4.93931 1.17971 165 148 124
-6.62093 10.3672 1.03804 241 255 254
-6.86589 10.3397 1.04607 242 255 254
-14.3573 -2.95009 1.34611 170 150 129
-13.3876 -1.46686 1.33145 58 55 75
-13.8424 6.96599 1.58342 131 133 135
-3.59458 12.7883 1.32439 144 146 146
6.96563 17.0321 2.13362 171 171 177
-6.92684 10.3826 1.34876 219 229 254
-7.84778 10.2965 1.4257 69 67 80
9.16606 11.441 1.73348 160 165 164
-4.35877 13.566 1.66633 152 154 156
-3.90122 13.1808 1.6716 87 87 83
-2.89578 -5.9759 1.23597 62 44 77
6.42892 15.4664 2.15737 77 75 95
8.16489 -2.70737 1.42353 149 149 157
-7.33565 10.2147 1.59701 46 56 74
9.77817 -0.32826 1.53374 134 131 147
10.2688 -0.128468 1.61854 120 120 133
9.76653 7.49618 1.77115 164 164 173
10.5667 0.354642 1.75253 142 143 155
-3.70156 8.75672 1.20845 60 53 62
3.84621 11.9551 1.8267 198 204 220
9.10001 0.0268362 1.67497 90 83 98
